ply
format ascii 1.0
comment pointcloud saved from Clarks Foot Scan v1.0
element vertex 787
property float x
property float y
property float z
end_header
0.12220915354015564 0.11082583430578775 -0.07131308531484781
0.12209144481365662 0.1115360152648709 -0.07112404043482287
0.12442396547170624 0.11386539799010752 -0.0686477071702695
0.1242159569106742 0.11452846061717407 -0.06853840293711005
0.18428157329667333 0.17129897616745526 -0.006008359151020881
0.184359158608712 0.17244380042430252 -0.005523558740147538
0.18492493413741895 0.17395123768592546 -0.004568027727617219
0.2373728768791024 0.08085284989961293 -0.0036601518653060494
0.23666405005584956 0.08151470240151755 -0.0038788547506951043
0.2333657419418177 0.08130298520857056 -0.006200678795583392
0.2323644896446494 0.08185530532298854 -0.0066615092434434975
0.22947796309863533 0.08175913181450022 -0.0086584612746205
0.22848348361173892 0.08230213159796618 -0.009118728858655167
0.22560960867516328 0.08218820062150804 -0.011114447170458674
0.2242264015293477 0.08258329091350967 -0.01189733449864916
0.2216618380661184 0.08255544220148664 -0.013649371553939527
0.22058232205951955 0.08304459494706407 -0.014189251188235164
0.21940661839430514 0.08349545076523009 -0.01480969968232132
0.2182334025665172 0.08394291970817831 -0.015429960714680946
0.21716070608907878 0.08442280916600677 -0.01596929864172164
0.21609022139046458 0.08489971706458284 -0.016508485400162975
0.21492406819257132 0.08533751172550663 -0.017128183054156865
0.2138580225695278 0.08580836215262805 -0.01766702784754176
0.21269666364852302 0.08623962894769603 -0.018286363686925378
0.2101753462617214 0.08615124007648337 -0.020034267063537198
0.20892386699152338 0.08653560555056541 -0.020733572327822802
0.20816018503830386 0.08710279029735174 -0.021029676133322572
0.20546062276132282 0.08691756624827805 -0.022937202276220786
0.2037354021250521 0.08709956186865983 -0.024038393126777358
0.2013386480861406 0.08700970246419075 -0.025702953374920123
0.1997194117999641 0.08721639853162097 -0.026722700870273924
0.19848911824916332 0.08757127698151089 -0.02742003214222083
0.1974536676083925 0.08799967841129573 -0.027956191245333023
0.19661222710729803 0.08850294682159993 -0.02833123531708459
0.195676462297183 0.08896514886969646 -0.028786624304495273
0.19483810001225593 0.08946422199429784 -0.029161472653582043
0.19409671447923627 0.09000086878932079 -0.029455799653109266
0.19345178573772626 0.09057571386508306 -0.029669678130843702
0.19290290569115154 0.09118944113926906 -0.029803167558750177
0.19244960202242356 0.09184269295850767 -0.029856303183466743
0.19218624021022362 0.0925765774803629 -0.029748788373565233
0.19192251769919916 0.09331114495150278 -0.029641401529492545
0.1831481422754121 0.09037034069112769 -0.03676168251570158
0.17175743190078419 0.0862408865338469 -0.04612688270066015
0.15814016802065256 0.08106946900250168 -0.057414452767146795
0.15501103459339854 0.08044330570051902 -0.05978906777104326
0.15395781455369068 0.08072217001057455 -0.060397532016421174
0.15084340475721253 0.08007506685712319 -0.06277052858160176
0.14792522685788773 0.07949939621800448 -0.06498214352092538
0.14641789358275725 0.07954747091719032 -0.0659901222807463
0.14407428862443322 0.07920672817954628 -0.06771916178440787
0.1432283034262547 0.07954174516105804 -0.0681651800062329
0.1422909753100498 0.07983138999862675 -0.06869118877118693
0.14154139396215448 0.08020478523213148 -0.06905681912810707
0.1407932282909427 0.08057629914081105 -0.06942232825392389
0.13754663267963113 0.07976613351657773 -0.0719496650314552
0.1366204377371516 0.0800401378246638 -0.07247458063770568
0.1356039611844923 0.08026725264743176 -0.0730793687367903
0.1340369548386381 0.08022507217943771 -0.07416402284785792
0.1331179174019902 0.08048907887135787 -0.07468826594833397
0.1323844994314719 0.0808399315906332 -0.07505235706841243
0.1315607535739864 0.08114389847727692 -0.07549633168468914
0.13073868954477197 0.08144557282051916 -0.0759401393398475
0.12991830124485026 0.08174496062800161 -0.07638381797317553
0.12909952808666247 0.08204203544300613 -0.07682735362107812
0.12828244534320865 0.08233683578025199 -0.07727073728803793
0.12755794690879152 0.0826754514492185 -0.07763410681911026
0.12692555150518992 0.08305852478229535 -0.07791753040682936
0.1263848179028808 0.08348673722294168 -0.07812104503073211
0.1258448443918998 0.08391398998849181 -0.07832450313392747
0.12530560864622475 0.08434025884367338 -0.07852795507813629
0.1248572719077307 0.08481276631099205 -0.07865158760289681
0.12431934766721796 0.08523733451398322 -0.0788549852578104
0.12387206755583492 0.0857085798392963 -0.0789785920824139
0.12342517837385218 0.08617929936634001 -0.07910221149779292
0.12315787234995372 0.08674563555778511 -0.07906642419260695
0.12297980530269768 0.08736059359079293 -0.07895104599948086
0.12280128249984824 0.08797636686061107 -0.07883576576205659
0.12271140609589763 0.08864165540443036 -0.07864094614414052
0.1225317565632879 0.08925922315762334 -0.07852592634959296
0.12244047400503981 0.08992676028641992 -0.07833138825143948
0.12225973779136808 0.09054616163405728 -0.07821659768677139
0.12198998078638347 0.09111675803937823 -0.07818151877584345
0.12172006499793815 0.09168773365978912 -0.07814649877801086
0.12144997155788474 0.09225908257843984 -0.07811156120228196
0.121091603214725 0.09278055481889537 -0.07815621082106444
0.12082128677644806 0.09335243563228116 -0.0781214099561956
0.12055078564170273 0.09392468986317684 -0.07808668706993444
0.12036771219678051 0.09454822825809929 -0.07797257428619886
0.12027160448156336 0.09522368523445932 -0.07777914799714519
0.1202620552700729 0.09595174637873835 -0.0775064304228201
0.1202513985335245 0.09668148179209067 -0.07723392243946448
0.12023965363599139 0.09741291711156701 -0.07696161121222359
0.12022683553779011 0.09814605376742432 -0.07668946837617119
0.12021289554993496 0.09888087555863918 -0.07641753164991008
0.12019789617625697 0.0996174090754391 -0.07614577760764321
0.12026820673042153 0.1004082718139808 -0.07579491700719362
0.12033712615228491 0.10120126906434924 -0.07544428762449529
0.12049077206046062 0.10204948577905233 -0.07501460735961066
0.12072872431403674 0.10295356949170954 -0.07450594755704151
0.12096467321861955 0.10386066613932536 -0.07399758872034043
0.12119863677176047 0.10477077996995286 -0.0734895445924173
0.12151614310538912 0.10573785121064559 -0.07290260520283792
0.12174595642798434 0.10665421187335593 -0.07239518724639812
0.12197377135509356 0.1075735884223303 -0.07188807497427033
0.12202943167546891 0.10838678914845483 -0.07153957536805156
0.12216865100337564 0.1092569775275586 -0.07111216807774368
0.12222134347847806 0.11007469930306733 -0.07076414456576594
0.122188004964644 0.1108393316242519 -0.07049545620072961
0.12206908465282261 0.11155022814920972 -0.07030601216019872
0.12397354013614652 0.11359885997256451 -0.06821961525068826
0.12376522874801844 0.11426165152616509 -0.06810997495254786
0.18385231289082438 0.17106487048551322 -0.0052863853597869825
0.1836834273136494 0.1720305231909241 -0.005036532540270089
0.18392100329873268 0.17329700770098894 -0.004393510015336888
0.23656785569648042 0.08134277247059854 -0.0029158383773486563
0.23307511250684887 0.08106810262416582 -0.005404724304515163
0.2322731005965663 0.08168890606471826 -0.005704471192384153
0.22909295062655632 0.08149459019215448 -0.007948766514208061
0.2282971762018453 0.08210674386567428 -0.00824799898783729
0.22503189950122165 0.08185879814543098 -0.010571924039801173
0.22384782552782512 0.08232387582128034 -0.011194487838089628
0.2209914137284792 0.08219424587719341 -0.013193092477840007
0.22001168658437803 0.0827187422316707 -0.013653116954657873
0.2188374055618551 0.08317029026419762 -0.014274838967364423
0.21766560324054524 0.08361845461135231 -0.01489636934979649
0.21659420358441273 0.08409888362010332 -0.0154368201377455
0.2156226924493081 0.08461228104858944 -0.015896232076808126
0.2144578604096587 0.08505095782247461 -0.016517238070178186
0.21339289025319824 0.08552262167808801 -0.017057197977357497
0.21203820609865925 0.08588166887086908 -0.01783943864116594
0.2095210060510101 0.08579518922277357 -0.019590978323707403
0.20817432578885642 0.08614313197520883 -0.020372467876541206
0.20547510696213234 0.08596578747982445 -0.02228435200087797
0.20462000768641958 0.0864893524687399 -0.022661357786709996
0.20309078669113134 0.08674731940953931 -0.023603324838191497
0.20050520606287275 0.08658349186240707 -0.02543274907504156
0.1988887580630096 0.08679073881811243 -0.026454530692923806
0.19756442544980635 0.0871074111098643 -0.02723393018298223
0.19653085362220907 0.08753551076712515 -0.027771093865372937
0.19559512298865622 0.08799950298615349 -0.028227444901341603
0.19466114828064313 0.08846106752798004 -0.028683682770275137
0.19382444123215886 0.08895942077677783 -0.0290591731056708
0.19308448419520924 0.08949521462023392 -0.029354004540314754
0.19244084908411008 0.09006912437489577 -0.029568180557951962
0.19189304224760256 0.09068180759252113 -0.02970180811524839
0.19144061177834787 0.09133393072150195 -0.02975490948651338
0.19127245653612862 0.09210674491992887 -0.02956653059506889
0.19110367658082017 0.09288068376767088 -0.029378304090043383
0.18045815887280864 0.08913351755982933 -0.03812300282698333
0.1712591430208219 0.08595309620859515 -0.04565701400848518
0.15841976445440364 0.08112562832213747 -0.05632485890384312
0.15501299760206505 0.08038000304903425 -0.058945848012124685
0.15386661558214987 0.08061902877290386 -0.0596360454601102
0.1508505010679287 0.08001760785214025 -0.061933699996582325
0.14803003437489498 0.07948786944439565 -0.06406965323954075
0.14587082328409068 0.0792425069658939 -0.06564227764500372
0.144183387585556 0.07920115643056166 -0.06681258269069773
0.1433374957849765 0.07953796865072568 -0.06725960350244045
0.14240044643749344 0.07982951485467232 -0.06778678916478928
0.14155807373244317 0.08016145675384397 -0.0682335030454419
0.14071737935181933 0.08049105423916236 -0.06868009785216564
0.13729106032032162 0.07959777028074164 -0.0713732770036852
0.1366425115613027 0.08000423613752035 -0.07165861528854578
0.13571869176153023 0.08027715293508719 -0.07218451764870834
0.13433712679547322 0.08032609806218852 -0.07311115347493849
0.13341804297597304 0.08059244261928722 -0.07363659474143186
0.13268421146734277 0.08094540251059755 -0.07400156670878202
0.13186026472239726 0.08125160988357967 -0.07444655083653057
0.13103798302892866 0.08155551572573469 -0.07489139123722116
0.1302173734317973 0.08185711991779256 -0.07533609235434977
0.12939837556449496 0.08215642635097992 -0.07578065630428857
0.12849016746699615 0.08240767196213777 -0.07630512417379828
0.12776541657462154 0.08274819192085574 -0.07666933234667461
0.12704198043994336 0.08308685014242358 -0.0770334423949676
0.12650081994188772 0.08351655113873617 -0.07723742705773234
0.1259603682588955 0.08394525960930403 -0.07744138251918684
0.12542066561474557 0.08437301146111191 -0.07764531468077798
0.1249716969704338 0.0848468863470646 -0.07776926117759192
0.12443333383580692 0.08527294027368663 -0.07797311970942761
0.12398537477101752 0.08574554757786386 -0.07809704624110889
0.12353786281943045 0.08621763133369603 -0.07822098379708939
0.12326955700962329 0.08678512871020479 -0.07818516684239454
0.12300107618931176 0.08735297505888952 -0.07814942122322796
0.12282150698356332 0.08796957626848977 -0.07803394518507087
0.12273039653915747 0.08863559289902584 -0.07783871861944863
0.12254974120209768 0.08925400644758213 -0.07772346099954347
0.12245723391468837 0.0899222652691651 -0.0775285572366761
0.12227547016626499 0.0905425004734347 -0.07741354736226685
0.12209322606979238 0.09116353295390266 -0.07729864896578406
0.12182228172027641 0.09173565793991618 -0.07726361339056306
0.12155118563216007 0.09230816202174963 -0.07722864117193343
0.12119200496556727 0.09283089850441896 -0.07727343517373622
0.12092067388085977 0.0934039316489521 -0.07723859050402673
0.1206491609618381 0.09397734423287604 -0.0772038288063168
0.12046490654259061 0.0946019315439855 -0.0770895115156994
0.12036743743543292 0.0952783342601123 -0.07689571113073077
0.12035635764195292 0.09600723170731684 -0.07662245376505766
0.12034415205098824 0.09673780980328578 -0.07634939765325793
0.12024403782222352 0.09741842627172334 -0.07615607971175462
0.12022980780726066 0.0981521709354727 -0.07588339177264541
0.12021450640810737 0.0988876244927717 -0.07561087735559055
0.12019808702713093 0.09962476767202148 -0.07533857390424484
0.12026682516074243 0.10041613962359743 -0.07498697496522302
0.12033418970964817 0.10120966416688211 -0.07463558927823186
0.12048609477802306 0.10205828975023461 -0.0742050102476817
0.12072211273013887 0.10296267785837336 -0.07369527306594795
0.12095613047029095 0.10387007429560745 -0.07318583643766038
0.12118816390467767 0.10478048638056549 -0.0726767143806768
0.12150354397081901 0.10574774217645515 -0.07208855056959018
0.12181663421856949 0.10671846512817594 -0.07150070435776157
0.12204238958408613 0.10763836065510636 -0.07099254728331245
0.12209633768409948 0.10845229924710877 -0.07064330131974228
0.12214887837094322 0.10926838308371283 -0.07029432048213727
0.12211538923367922 0.1100316824807283 -0.07002483572862056
0.12208082084273846 0.11079672277379597 -0.06975553627110345
0.12196080761082255 0.11150810656959499 -0.06956568775835781
0.12335494221263586 0.11322123003424191 -0.06795010112582792
0.12314663278520595 0.11388332346584253 -0.06784009543193589
0.1836731015381673 0.16992572939469253 -0.004735730708367469
0.18334093807350993 0.17077120196605916 -0.004642813422800984
0.1830897637281177 0.17167707457014791 -0.004471175512383518
0.18308178253572094 0.17276340384074118 -0.004063168392775707
0.23178376616842788 0.0813872005986669 -0.005070776088818785
0.23118150606184756 0.08207441462634506 -0.005208716630512145
0.22781334149309757 0.08180849643632615 -0.00761963783682601
0.2271180706970174 0.08245371738183313 -0.007838276822301038
0.22327188474448195 0.08199513845984294 -0.010653445145728357
0.22268180349965316 0.08266556517169184 -0.010790359100934566
0.21944134094036188 0.08239292406660612 -0.013117186252723123
0.21836653507737958 0.08288027629435726 -0.013659094350141787
0.21719602155216627 0.08332932937270457 -0.014281915847862037
0.21612568822640338 0.0838105749997931 -0.014823477581057343
0.21515511000567183 0.08432465775793685 -0.01528384617578571
0.21408896710551756 0.08480024165999948 -0.015825114742695934
0.21302495607067068 0.08527289998878904 -0.016366210429093697
0.21138041253407097 0.0855239403662148 -0.01739305992376755
0.20906122055274556 0.085512712087602 -0.01898628235112612
0.20732895860107747 0.08571417611860598 -0.020093194036670925
0.20502110166287124 0.08568697002428627 -0.021685275287069372
0.20397375698941544 0.08613646708842176 -0.022224867183434915
0.20225412359633227 0.08632017387575679 -0.0233305692085104
0.1999617063756276 0.08627125988359897 -0.02492112536543742
0.19815548653922516 0.0864037078876807 -0.02610673002292463
0.196545609164668 0.08660618461818195 -0.027130209143315265
0.19560975794755192 0.0870721942307288 -0.027587542573988905
0.19467565274896098 0.08753577026346296 -0.028044753400739614
0.19374336025543237 0.0879969331654609 -0.02850181764787449
0.19290811500108884 0.08849477603896994 -0.0288779749509587
0.19207432451744633 0.08899063339814853 -0.029254058679510142
0.19143192207452936 0.08956359942639533 -0.029468566199526702
0.19098002248024848 0.09021499423263335 -0.029521624625611503
0.19052834622439385 0.0908661940421044 -0.029574723495424338
0.1903604066298023 0.09163778461772665 -0.029385801214375895
0.19028614384576498 0.09245089852160795 -0.02911639853659928
0.18022583162846184 0.08895805384242095 -0.037395546896745874
0.17076108761310232 0.08566534138783265 -0.04518731329998485
0.15860283269899023 0.0811390801431347 -0.055313338362406206
0.15510710226462548 0.08035698101561155 -0.058020513252614675
0.15358700367948241 0.0804320357843414 -0.05903453535046532
0.1506691655406558 0.0798756632320501 -0.061256464177479736
0.14794630332593262 0.07939120310019789 -0.06331638268852863
0.14569688222227406 0.07910648641410892 -0.06497284418465285
0.14429055291618426 0.07919438513959916 -0.06590413678721224
0.1435375822746397 0.07957560188165473 -0.0662716683634369
0.14250794584798665 0.07982643474320938 -0.06688049553774447
0.14157314697879886 0.08011712031565256 -0.06740866868474421
0.14073272457755426 0.08044829468519211 -0.06785622694467422
0.14007841390262693 0.08086412733099008 -0.06814283778105693
0.13657087294558645 0.07992360625525455 -0.0709215017381575
0.13583151385028014 0.0802858503858884 -0.0712877754169989
0.13463463695624284 0.08042549056106225 -0.07205572368098759
0.13371550598308923 0.08069416389088307 -0.07258235784515848
0.1329812651650229 0.08104925836510701 -0.07294818907540757
0.13215711407474268 0.08135768790600537 -0.07339420956734052
0.13133460271865222 0.08166382241503779 -0.07384007355162342
0.13051373259238402 0.08196764652508755 -0.07428581259941272
0.12969455992571 0.08226919603810856 -0.07473140410975526
0.12878630258320473 0.08252277349256405 -0.07525706515189046
0.12797057900555764 0.08281951457318285 -0.07570233745611757
0.12724688832156894 0.0831600801550776 -0.07606728642116245
0.12670510462331053 0.08359147318569031 -0.07627176111077702
0.12616405869035813 0.08402188230593448 -0.07647622964140502
0.12562373284600542 0.08445132619204247 -0.07668065182984599
0.12517397467359626 0.08492678969733494 -0.07680492765146854
0.12463500033713425 0.08535453849029247 -0.07700928537209395
0.12409673349518381 0.0857813069205372 -0.07721361943469676
0.12364856927399924 0.08625476754527003 -0.07733786290058253
0.12337925377126878 0.08682342020423156 -0.07730200685949098
0.12310978516341615 0.0873924305700153 -0.07726624075275543
0.12292901880226877 0.08801008400491818 -0.0771505515956725
0.12283657382481179 0.08867705806117271 -0.07695497425140693
0.12265474037558101 0.08929652654779693 -0.07683951711801182
0.12256085969786344 0.0899657282771113 -0.07664423009728955
0.12237791783726905 0.09058701841944884 -0.07652902070939036
0.12219449562862543 0.09120910583798472 -0.07641392279941758
0.12192257949756148 0.0917823947360665 -0.07637883823422748
0.12165043580514655 0.09235604547073725 -0.07634383683277357
0.12129043786161343 0.09288004324431495 -0.07638877049915269
0.121018104128843 0.0934542315520308 -0.07635389118654248
0.12074558151689803 0.09402879941840753 -0.07631909040243584
0.12056015316818562 0.09465443552643393 -0.07620457304843262
0.12046131562422698 0.09533178410159757 -0.076010394124053
0.12036172298631385 0.09601039763361162 -0.07581635787874341
0.12034812616321262 0.09674159721149142 -0.0755427382857444
0.12024680711911052 0.09742293975427775 -0.07534903103304488
0.12023117673579774 0.09815730908978355 -0.07507577544418834
0.12021448019667712 0.09889337964240026 -0.07480269269001627
0.12019667167491717 0.0996311412329854 -0.07452982548252332
0.12026386693393866 0.10042304330951297 -0.07417747940114858
0.12032963314928367 0.10121707126825184 -0.07382537444109746
0.12047979347002698 0.10206610123366051 -0.07339389178896394
0.12071388416554284 0.10297079361801074 -0.07288308167156157
0.12094597569477146 0.10387849279616858 -0.07237257197013144
0.12117607796472744 0.10478920467074489 -0.07186237212156135
0.12148937104127853 0.10575667504044463 -0.07127294740763049
0.12180035493536555 0.10672758692892474 -0.07068385312781236
0.12202417809077491 0.10764778378076119 -0.07017461839925071
0.12207653699344091 0.10846222259837217 -0.06982465733116869
0.12204291495542306 0.10922420394701575 -0.06955439533789515
0.12200820089455965 0.10998791426721975 -0.06928430421034157
0.12188808878479197 0.11069829813135183 -0.06909386729322761
0.12185130351936214 0.11146523347954075 -0.06882414511887927
0.12248528684303563 0.11267768565663137 -0.06791956343542507
0.12236126984632546 0.11339412266706618 -0.06772976921209228
0.18316202497121525 0.16963204216757632 -0.0040923397174511544
0.18282942274151381 0.17047744325288416 -0.003999104238519402
0.18257761982928578 0.17138313452423926 -0.003826969040078676
0.1824873192442184 0.1724093605871203 -0.0034969875473914724
0.23059356349735505 0.08173908774844835 -0.004656536406181466
0.2296964362659059 0.08232385822180127 -0.005038804447961565
0.22653610315031047 0.082121518765915 -0.007291561371899069
0.22574402197202098 0.08273136101840385 -0.007591903542497669
0.22230284678719103 0.08240604742480781 -0.01008717632561823
0.219067301530535 0.08213670728250895 -0.012418882401721842
0.21799344642375412 0.08262506626573822 -0.012961927378150717
0.21682405361559232 0.08307524462886137 -0.013586056718653927
0.21575468172384665 0.08355751200649536 -0.01412877003608709
0.21468746261093885 0.08403682310510131 -0.014671307723528482
0.2136224077254859 0.08451320201220297 -0.015213689754545512
0.21255946660799424 0.08498665852163782 -0.015755927682398196
0.21111098236397174 0.08531182702811481 -0.016622584813899943
0.20840780862009756 0.08515690350741006 -0.018543714610740475
0.2069680683404186 0.0854698166898414 -0.01940952825420894
0.2042776278764012 0.0852969339973446 -0.021329370637144546
0.20313550021457877 0.08570933032475976 -0.021951096786981344
0.20180347843001445 0.08604348788954014 -0.022734761187887975
0.19913044073917852 0.08584603848838797 -0.02465279399842643
0.19780662026666684 0.08616869656777486 -0.02543566477450737
0.195528857936566 0.08610601582565441 -0.027028364483298678
0.19469033353683235 0.08660972336233677 -0.027405543106205243
0.19375790637001983 0.08707290389639334 -0.027863580861053172
0.19282727226932106 0.08753365629040712 -0.028321490276953798
0.19199347907718445 0.08803097968193169 -0.028698342225282863
0.19116116507312392 0.08852633872382265 -0.02907506996241041
0.1905198959512645 0.08909858140570899 -0.029289922496137266
0.1899740899109793 0.08970940054295427 -0.029423850826908682
0.18952329444920896 0.09035945028740908 -0.029476909075138447
0.1894500609452816 0.09116967566183878 -0.02920660903526698
0.18946999736216724 0.09202176984993984 -0.028855685821544436
0.17999271648797505 0.08878201177221029 -0.0366672445679517
0.17026327976734612 0.0853776218330193 -0.0447177894621511
0.15868987878295682 0.08111013459110429 -0.054380377692455545
0.15529286064988174 0.08037392629903369 -0.057012548165545573
0.15312006826713004 0.0801618467402528 -0.05859396551626034
0.15216563272684003 0.0804824880098274 -0.059125310939644016
0.15018904337139571 0.08033999049908576 -0.060544240287832896
0.14552205553618464 0.0789698615156445 -0.06430256553406233
0.14421018837770738 0.07910181711203201 -0.06515513330098008
0.14364270846127997 0.07956929914269271 -0.06536216423399718
0.1427060350322254 0.07986486361603021 -0.06589170072001097
0.14167899130646888 0.08011471168064487 -0.06650166906535154
0.14083864612174968 0.0804476845979523 -0.06695022130315523
0.13999997375819895 0.08077833140558942 -0.06739866056021365
0.13640615668827555 0.07979858984215522 -0.0702637480952191
0.13594234667448424 0.08029332478929901 -0.07038915713036292
0.13492946781932136 0.08052326514820646 -0.07099773039724888
0.1340103016908819 0.0807942700827848 -0.0715255666210372
0.13327566906500515 0.08115148366777479 -0.07189226018294156
0.13245128203804396 0.08146215108727703 -0.0723393050833106
0.13162855015554503 0.0817705110733413 -0.07278619681973386
0.13080745741151528 0.08207656373099839 -0.07323296389461145
0.12998805926492557 0.08238033576974582 -0.07367957843865044
0.12907976390498016 0.08263623880707788 -0.0742064365470112
0.1282638043906521 0.08293521776630056 -0.07465273325967445
0.1275397198074999 0.08327790552953689 -0.0750185448313225
0.1269971617358988 0.08371119937934414 -0.07522356119014245
0.1264553517572582 0.08414353072201981 -0.0754285118663151
0.12591427326986443 0.08457488736605344 -0.075633457208345
0.12537393105214412 0.08500527546683527 -0.07583836482023185
0.1248343405603397 0.08543471617482286 -0.07604321701120303
0.12429546042520108 0.08586318254197858 -0.0762480505375435
0.12375732228404444 0.08629069240964438 -0.07645285632052465
0.12348700985755949 0.08686051227555049 -0.07641697562331609
0.12321653651029084 0.08743068087509245 -0.07638117514862772
0.12294587483359838 0.08800120777780694 -0.07634544239081542
0.12285219312861252 0.08866890069481248 -0.07614949021989603
0.1227577649699597 0.08933783565862227 -0.07595367422244118
0.12266253985217644 0.09000798891104424 -0.07575802698618775
0.12247840292753613 0.0906303282081089 -0.07564260420441477
0.1222937955618612 0.09125347068398278 -0.07552730233745605
0.12202087260002818 0.09182792088639825 -0.07549218367926108
0.1217477550347122 0.09240273860371274 -0.07545713356278597
0.12138693067802538 0.09292800085804437 -0.07550220272519342
0.12111357256689038 0.09350333239021186 -0.07546730728529893
0.12084004026202215 0.09407905553904136 -0.07543246741479556
0.1206534309389845 0.09470574056325476 -0.07531774555391055
0.12055325268771029 0.095384048352204 -0.07512317415547348
0.12045226883701816 0.09606359733981157 -0.07492877802384335
0.12035051189482011 0.09674440703621648 -0.07473451082837337
0.12024796421372598 0.09742646678519602 -0.07454043305504204
0.12023095937507093 0.09816146659003831 -0.07426659075092581
0.12021285587269602 0.0988981481018525 -0.07399296761214089
0.12019367080424075 0.09963654323234965 -0.07371951396433618
0.120259268775378 0.10042894718904365 -0.07336644847242754
0.12032347456853752 0.10122348719285208 -0.0730136143357441
0.12047188386759013 0.10207293075204345 -0.07258122888687096
0.12061859097248816 0.10292494508332205 -0.07214910481136358
0.1209342126248112 0.10388592933168671 -0.07155776305922729
0.12116237954763036 0.10479694713703229 -0.07104648596896657
0.12147356522484144 0.10576460797877911 -0.07045581332452017
0.1217824534430808 0.10673572379908584 -0.06986548568194018
0.12191964143738786 0.10760215395956739 -0.06943484396972727
0.1218860289854987 0.10836259783296122 -0.06916378063442374
0.1218513185115802 0.1091247692618978 -0.06889288358387022
0.12173123096761528 0.10983393105471971 -0.06870182055467883
0.1216103642791359 0.11054439311601023 -0.06851090336645871
0.12148866881127439 0.11125613335637434 -0.06832012735502854
0.12178518659369987 0.11224600180649925 -0.06773177461900418
0.12166113362695506 0.11296141809163594 -0.0675414213086134
0.18273225251252928 0.16939711671962238 -0.003369569177657572
0.18231777237118146 0.17018359652964982 -0.0033552624566491884
0.1819842041939937 0.17102982284099072 -0.0032618425285743102
0.1818120833556628 0.17199593876327318 -0.003010202288496744
0.2291096962926799 0.08198890252070115 -0.004487588382575347
0.2284116612677044 0.082640025271238 -0.004707520182498481
0.22526119623715718 0.08243369747045191 -0.006964494417366296
0.2221194332304916 0.0822150634578074 -0.009220571611630202
0.21869283710518195 0.08188008187584482 -0.01172009208975916
0.2177175993399844 0.08240439008948108 -0.01218285063259883
0.21654919417308027 0.08285589934666823 -0.012808310680892498
0.21548059368495476 0.08333938274175505 -0.01335219474570748
0.21431695384469662 0.08378435551771021 -0.01397726993706716
0.2132528055759806 0.08426177531443063 -0.014520778541033674
0.21219083903634495 0.08473624744749922 -0.015064134557332187
0.21074400894655848 0.08506284179482634 -0.01593259858688062
0.20785166022595192 0.0848377742719329 -0.01802037794962763
0.2064138760261489 0.08515168022479938 -0.01888796416698027
0.20372769843480049 0.08498114742615837 -0.020811767381986812
0.2023947361888881 0.08531996775633366 -0.021597279090390387
0.20125675775013113 0.08572926777385229 -0.022220033061462002
0.19839637028402218 0.08545901501359202 -0.024304486219988958
0.19726596685090503 0.08585769420738916 -0.024926507427359745
0.19470519482696347 0.08568292068345051 -0.026766051336776175
0.19386801878452536 0.08618633846343882 -0.02714390155171023
0.19293708056497594 0.08664932365409676 -0.027602827780583372
0.19200793523645976 0.08710988390879676 -0.028061588556064998
0.19108056206052682 0.08756804672920891 -0.02852022374207866
0.19024971343759267 0.08806287695811886 -0.02889764974310327
0.18951495027545717 0.08859508652043989 -0.029193882229250956
0.18897021744523917 0.08920486160112452 -0.029327948689412353
0.18852031763807492 0.08985377013447943 -0.029380980471390733
0.18844723429663768 0.09066243272397277 -0.029109994399699662
0.1887491355492777 0.09163349079439043 -0.02851516732268944
0.17957107603463252 0.08852451476781037 -0.036100066912475554
0.1697657004403253 0.08508993483138975 -0.04424842888954805
0.15868146927643645 0.08103909469634578 -0.05352649844168275
0.15538292577819962 0.08034835937498823 -0.05608329301769266
0.15274660177164545 0.07993300867024661 -0.0580726531046436
0.15179319293366678 0.08025444294771525 -0.05860507172572227
0.15037716057521217 0.08036437146807074 -0.05954168916424399
0.14766578832393623 0.07988178966448428 -0.061609982225762056
0.14607366722741116 0.07989432445412843 -0.06270730823100223
0.1437458973844704 0.07956178174741545 -0.06445078303305049
0.1428094886344169 0.07985924782567098 -0.06498148752946709
0.14178289627933593 0.08011109145989742 -0.06559279264939985
0.14085061807070248 0.08040279970157226 -0.06612311519826969
0.14001219446059693 0.08073502682181621 -0.06657250485299435
0.13935886602556768 0.08115193246378258 -0.0668603074956976
0.13595968449785817 0.08025586716114325 -0.06956938398499873
0.13513021486585164 0.08057545904087049 -0.07001786495367451
0.13421116074764083 0.08084858973237805 -0.07054688925906477
0.13347628270866696 0.08120770748784942 -0.07091442590626906
0.13265181450515023 0.08152038556336887 -0.07136247486892719
0.131919819019578 0.08187555736034212 -0.0717297829008732
0.13109852538808836 0.08218385050433762 -0.07217755948722265
0.13027889053401642 0.0824898513292325 -0.07262519317135793
0.12937054174635843 0.08274809235101317 -0.07315324500224005
0.1285543441580264 0.08304927870738564 -0.07360058743276421
0.12782988245250504 0.08339409763938915 -0.0739672383769551
0.1272865506032818 0.08382930460493224 -0.07417276455887603
0.12674398875240128 0.08426355779798995 -0.07437824365697737
0.12620214562359877 0.08469682436791383 -0.07458370299065631
0.12566104162662395 0.08512912841646685 -0.07478912958758405
0.12512065771824887 0.08556046723088367 -0.07499450984232472
0.1244918759376183 0.08594364648526082 -0.07528026177216474
0.12395310259789129 0.08637284555519134 -0.07548554842005578
0.12359280050095896 0.0868963901676344 -0.07553004954165024
0.12332131327806094 0.08746772019078014 -0.07549421053046104
0.12304966172247432 0.08803941418116915 -0.0754584575600277
0.12295462853256243 0.08870805874055235 -0.0752621407300812
0.12285883898196902 0.08937793944412892 -0.07506595063671134
0.12276226088362731 0.09004905970604528 -0.07486990717027431
0.12257693325272777 0.09067243881260124 -0.07475430755917586
0.12239113654731539 0.0912966424869641 -0.07463880228512706
0.12211720884606635 0.0918722509231378 -0.07460364925897933
0.1218430977689008 0.09244822061378945 -0.07456856866815154
0.12148143500069268 0.09297474451683962 -0.07461376416464738
0.12120710092530358 0.09355124610222634 -0.07457882028467963
0.1209325491955781 0.09412811542681292 -0.07454396900533594
0.12074474271714149 0.09475585267632894 -0.07442903402552503
0.1205564412511843 0.09538440869607177 -0.0743142124482761
0.120454248677324 0.09606467927143493 -0.0741194221495319
0.12035127569222213 0.09674622130260968 -0.0739247617492656
0.1202475308363715 0.09742901930320919 -0.07373026726212967
0.12022912008013865 0.09816462853196121 -0.07345588443592657
0.12020961934644335 0.09890193010966859 -0.07318169323497237
0.12018904304585153 0.09964094672207661 -0.07290767610596838
0.12016736103667953 0.1003816451607266 -0.07263387369879967
0.12023015235241093 0.10117649610114894 -0.07228025943049812
0.12037696225286872 0.10202613063739956 -0.07184695125116028
0.12060734587557444 0.10293121509860027 -0.07133397587859142
0.12083573242334601 0.1038393032830331 -0.07082130064704684
0.12114707701879858 0.10480370149712571 -0.07022905482310068
0.12145616597448546 0.10577156780598691 -0.0696371489533664
0.12167826768340191 0.10668912892391803 -0.06912542885504652
0.12172935233900646 0.10750180176621242 -0.06877368656866875
0.12169463467442236 0.10826242673247362 -0.06850201141014559
0.12157460228789989 0.10897038583061507 -0.06831031332762216
0.12136966031406447 0.1096249965447308 -0.06819857037599972
0.12124816580263813 0.11033530685358851 -0.06800717191098662
0.12112583173421919 0.11104688777011189 -0.06781594243779382
0.1211699739395876 0.11187030579192124 -0.06746540283038646
0.12112920132926046 0.11264038310614365 -0.06719481904124996
0.22782576877482275 0.08230524643785589 -0.004156939084774158
0.2270312308352509 0.08292116706814202 -0.00445894084223214
0.22389080196879685 0.08271061436887292 -0.006720115660535486
0.2217355015263492 0.08283368454551995 -0.00816420993217526
0.21724598246768817 0.08211344465262393 -0.011566178083755874
0.21617618473535283 0.0826008972376072 -0.01211134226157251
0.21520570784290827 0.08312066922160158 -0.0125747636198833
0.21404303814228226 0.08356698836376829 -0.01320116645027719
0.21297969082314944 0.08404564508985897 -0.013745836997844818
0.21182176399403663 0.08448544027163579 -0.014371847184104503
0.21027998747894028 0.08477732819624138 -0.015323637093140552
0.20748859007038178 0.08459139086940694 -0.017334254851070208
0.20576367735512185 0.08479699185412053 -0.018448040067652827
0.20327419639807648 0.08470216362157111 -0.02021292520666093
0.20175093829896878 0.08496804835985433 -0.02116290340192703
0.2006145090835874 0.08537781384622742 -0.021786892771488098
0.1977589191287315 0.08510989282284198 -0.02387563919944119
0.19672557013331998 0.08554672392310704 -0.024417531119426766
0.194073568746434 0.08533626762644608 -0.02634222701085287
0.19323739858317251 0.08583984441660368 -0.026720804132124854
0.19221263318107146 0.08626474767097055 -0.02726192197496985
0.191189929042055 0.08668677494411325 -0.027802886508381558
0.19026406291073145 0.08714473924552052 -0.028262381391072344
0.18924537631839083 0.08756128999656682 -0.02880300076121084
0.18851206052047276 0.0880926525241711 -0.02909971417346699
0.1878741201193762 0.08866194026441791 -0.029315143952659273
0.18742528481666415 0.08930948012554611 -0.029368137809231254
0.18735250776436424 0.09011637409651407 -0.029096418781808908
0.18812309942614064 0.09128575666911869 -0.02809435075539035
0.17896199200332524 0.08818617279528607 -0.03569502619617662
0.1692683579974521 0.08480226810064206 -0.043779230482383996
0.15867150298064542 0.080967061507419 -0.052671063056800776
0.15537786080780736 0.0802805985073821 -0.055233275174983165
0.15255910079426677 0.0797863882069495 -0.057388979238044924
0.15151352373198618 0.08006763927564223 -0.05800358570841696
0.15037750088624874 0.08030403113118761 -0.05869902594863993
0.14766997605476084 0.0798251176139463 -0.06077166783156687
0.1454324162311355 0.07954549952000259 -0.06243839396494377
0.1438471378166445 0.07955305595624398 -0.06353752086699668
0.1429110042023573 0.07985240828654008 -0.06406939199907641
0.14188484780767935 0.08010625989195033 -0.0646820305498971
0.1409528272331867 0.08039986985781328 -0.06521351666567377
0.14002280863906197 0.08069071427813909 -0.06574483086774255
0.1392778373629086 0.0810655947405957 -0.06611415133471696
0.1358840291662402 0.08017379376818307 -0.06882894308042167
0.13523742375243636 0.08058240597510875 -0.06911665164743541
0.13431863354242546 0.08085742917907794 -0.06964683869488866
0.13367458702608176 0.08126251655918941 -0.06993437148642315
0.13285004887357593 0.081577199030305 -0.07038342840497044
0.13211778056626644 0.08193428456729629 -0.07075156701657226
0.13138691329616914 0.08228951027349089 -0.07111958632170623
0.13056705791568873 0.08259773657541762 -0.07156824775798187
0.12965865988302427 0.08285830944049591 -0.07209749276148947
0.12884223758557767 0.0831617274150512 -0.07254586349404984
0.12811735380145145 0.08350866900547653 -0.07291335927085998
0.12757326930918717 0.08394578872894523 -0.07311940860636984
0.12702992394875057 0.08438194593104308 -0.07332542520512852
0.12648733372613474 0.08481714050673926 -0.0735313805647359
0.12594546299639814 0.08525135755175801 -0.07373732142826062
0.12540432358282771 0.08568460310221955 -0.07394321984319835
0.12477496044055798 0.08606980148078809 -0.07422966034711243
0.12414660176493246 0.08645358347492345 -0.07451603815039742
0.12369663637928298 0.0869310688755506 -0.0746412433197211
0.12342414441696896 0.08750355713245456 -0.07460536994057912
0.12315148812196634 0.08807640935660178 -0.07456958260219299
0.12305511108770935 0.08874601773563381 -0.07437287371061088
0.1228698609215169 0.08936842427671612 -0.07425681286251107
0.12277207068810207 0.0900402813599955 -0.07406038104719559
0.12267349472312329 0.090713350471466 -0.07386412188668168
0.1224865269504002 0.09133860896462673 -0.07374842154263891
0.12221158955622789 0.0919153726832532 -0.07371322943009448
0.12193646460343295 0.09249250379750862 -0.07367811030276583
0.12157397960477721 0.09302028604016173 -0.07372344074539411
0.12129863374511181 0.09359794597857672 -0.07368845805397761
0.12102309900627188 0.09417598547565258 -0.07365355389106462
0.12083409477671571 0.09480476265392997 -0.07353843763843229
0.12064460633724948 0.09543436617384211 -0.0734234069733316
0.12045464299916715 0.09606478964145865 -0.07330850317875481
0.12035043042438216 0.09674704451150347 -0.07311346295844284
0.12024546770915 0.09743056728970413 -0.07291857013564479
0.12022566649158177 0.09816680709282345 -0.07264362909658215
0.12020479521037498 0.09890474362646053 -0.07236885603628618
0.12018280803869809 0.09964436671147285 -0.07209429366675138
0.12015974843715425 0.10038570022532257 -0.0718199049567449
0.1202209484641852 0.101181054461929 -0.07146557585887942
0.12036601047998184 0.10203109798609906 -0.07103136447038008
0.12059446684608761 0.10293648672351126 -0.0705173161621426
0.12082092300022963 0.10384488379001879 -0.07000356840735134
0.12113018869662882 0.10480949492336368 -0.06941006598658292
0.12135252098318879 0.10572413078770516 -0.06889695704639306
0.1215728488750789 0.10664178112229296 -0.06838414920954528
0.12153813556824085 0.10740087628974314 -0.06811167339636198
0.12141813660885921 0.10810762075447304 -0.06791935877612293
0.12121326780937518 0.10876134699564406 -0.06780719810895705
0.12100790302266397 0.1094159270943592 -0.06769512994735022
0.12080202233490174 0.11007135666905614 -0.06758317793778468
0.12067921283743298 0.11078257230887968 -0.06739145252241355
0.12063906653347799 0.11155025050785487 -0.06711997065294367
0.12068110154909494 0.1123750213018301 -0.0667688323680137
0.2264463858333075 0.0825866497361751 -0.003909167095011268
0.2259466717288342 0.08330400394250262 -0.003966283227642253
0.221841144199955 0.08274505096422974 -0.007049589308048554
0.21969356501320253 0.08286355300272293 -0.008496223200153308
0.2158027600140331 0.0823454956126749 -0.011413859703734708
0.2149300411036122 0.08290134367734617 -0.011796511573475277
0.21386515951943863 0.08338436650398412 -0.012342532489648339
0.21280242525681492 0.08386448490780657 -0.01288836283453626
0.21164531380720875 0.0843058536783816 -0.013515721005977144
0.20962319025543275 0.0844195404970414 -0.014877825896029095
0.2074137910856253 0.08445335969754549 -0.016402727142351137
0.20492197012882174 0.08436954321629916 -0.01817189884866266
0.20310833572345294 0.08453309064640749 -0.019369094141370363
0.20110776272088354 0.08461637354770929 -0.020729015534744377
0.1999729010013046 0.08502659812324571 -0.02135424863989102
0.19731302062379324 0.08483571547417833 -0.02328418483018485
0.19609012413937443 0.0851981748185558 -0.023990267651084862
0.19344255447500353 0.08498984095462381 -0.025918912915426834
0.19260739096171975 0.08549358584740711 -0.02629822221137651
0.1914891395733493 0.0858805985090168 -0.02692188908692822
0.1904679948202409 0.08630277255219801 -0.027463889455024704
0.1893543478319814 0.08668340321551098 -0.028087149673071188
0.1882431118508363 0.08706073935941115 -0.028710221790837237
0.18741693574283308 0.0875521548318414 -0.029088843082230947
0.18678044032036795 0.0881202952620085 -0.02930455587341463
0.18623869518971126 0.0887269208534349 -0.029438879274750807
0.18635399928798912 0.08961136191064906 -0.029003699091967067
0.18712311090457778 0.09077826552634663 -0.027999382442830095
0.17816654921214875 0.087767632190528 -0.03545315575827321
0.1687712672992484 0.0845146304946925 -0.043310208395990646
0.1586599547074073 0.08089400476717074 -0.0518141169061386
0.1553712178675935 0.0802118111513883 -0.054381708902153436
0.15237071628396837 0.07963916032639744 -0.05670445990625869
0.15132604881973116 0.07992176485661318 -0.05732035901759289
0.1502836808577453 0.08020114656408306 -0.05793603636098524
0.1473952838977871 0.07964214791696445 -0.06017541757206016
0.14737550621593304 0.08037245676789864 -0.05989733799816038
0.1436701048146889 0.07941651410436959 -0.06286583591097328
0.1428266467581713 0.07975953756860814 -0.06331767554111672
0.14180124156845586 0.08001495474379071 -0.06393161681731493
0.14086980300887675 0.0803100208425847 -0.0644642399630361
0.1399403193820769 0.08060231595607167 -0.06499669693007376
0.13901282710379925 0.08089186408098382 -0.06552894624369901
0.1385433483506075 0.08139621025427915 -0.0656557771211069
0.13516054922938237 0.08050068102138044 -0.06837561390430105
0.1342423157169979 0.08077716685724184 -0.06890692520110675
0.13377981703332897 0.08127172480985524 -0.06903308005171965
0.13286475027731004 0.08154381674100633 -0.0695641092603809
0.1323134594245468 0.08199157836352274 -0.06977113822640224
0.13158232142406528 0.08234871473915988 -0.07013998783624409
0.1307623827756763 0.08265895476767932 -0.07058965360975672
0.12985410016514537 0.0829216381560794 -0.07112008087663058
0.12912745303598971 0.08327254604795532 -0.07148857052225999
0.12831247244742722 0.08357591549886403 -0.07193779925203403
0.12776776552576136 0.08401473634908928 -0.07214434388273347
0.12722381314619569 0.08445258227637162 -0.07235085912038602
0.12668060963039174 0.0848894747889788 -0.07255731394373102
0.1261381115177463 0.08532539000944867 -0.0727637453840014
0.12559635176612738 0.08576033361609126 -0.07297013881918082
0.12505535287663777 0.08619432664009405 -0.07317648100199262
0.124426408656667 0.08658013389957178 -0.07346354792924753
0.12388699442281774 0.0870119813815082 -0.07366981557072202
0.12361336695769749 0.0875858607588278 -0.0736339464936541
0.12333954334749188 0.08816008946613353 -0.07359813542162644
0.12315361505612614 0.08878276867839201 -0.07348174534144167
0.12296718677776271 0.08940623015754225 -0.07336548497985187
0.12286804010591458 0.09007903593189384 -0.07316868378706537
0.12268052437568792 0.09070432191303204 -0.07305264738701525
0.122492495339544 0.09133039949205857 -0.07293673708690787
0.12221669750931595 0.09190810957473405 -0.07290149163500326
0.1219407353463993 0.0924861836246528 -0.0728663322238545
0.12166455821621987 0.09306463463973717 -0.07283123329227739
0.1213882097084915 0.09364344974133489 -0.07279621595796015
0.12111166736808134 0.09422264145028802 -0.07276127243370256
0.12083494319335701 0.09480221259863197 -0.07272641188144449
0.12064440548883758 0.0954326380364453 -0.07261118042221912
0.12045340157195948 0.09606389406394644 -0.07249604829343526
0.12034800382078563 0.09674689001764661 -0.07230060052125856
0.12024179628748773 0.09743113331115609 -0.07210532856578467
0.12022062765943757 0.09816800346434186 -0.07182980525495836
0.12019833427957925 0.09890655273100428 -0.07155448306053147
0.12017495483008929 0.09964679883321524 -0.07127935734727134
0.12015049695154854 0.10038875394824588 -0.07100440071256955
0.12021014150990135 0.10118462318122735 -0.07064934715651566
0.12035344441347041 0.10203508195373791 -0.07021422866525473
0.12057998056783654 0.10294077484809151 -0.06969911186484462
0.12080451051105513 0.10384947465552279 -0.06918429103691076
0.12111167948593009 0.10481429125598203 -0.06858955539085443
0.12124760052832127 0.10567591543021627 -0.06815557921457113
0.1214661566945381 0.10659365191088531 -0.06764168336424747
0.12134605153756901 0.1072994071909625 -0.06744878130195786
0.1211410826588336 0.10795245221352175 -0.06733619884833217
0.12093564360608396 0.1086063643148646 -0.06722373235501117
0.1206459572769361 0.10920671514643625 -0.06719149413786449
0.12043962290978312 0.10986210535684708 -0.06707923126538293
0.1203161855893674 0.11057316924423781 -0.06688702457321882
0.12019196494173105 0.11128553954124816 -0.06669496427192181
0.1203994271066142 0.11222028019654691 -0.06618290281533964
0.22584946315113247 0.08314024971589737 -0.0030069119607145645
0.22165276526825678 0.08255180791118188 -0.006178622109005105
0.22193599169640577 0.08353803626360629 -0.005579817318987101
0.21882297614753582 0.0833085929453493 -0.007848605391504893
0.2145567391936556 0.08264633134402019 -0.011099350709088185
0.2136861397598353 0.08320093856379884 -0.011482706584264923
0.21272055126254313 0.08371801147143006 -0.011947837188699517
0.2112749864002565 0.08405403271262063 -0.012822100140124137
0.20925559054727588 0.08416976441641262 -0.014187062408317963
0.20704929519265625 0.08420585920943173 -0.015715105405631202
0.2044652143971094 0.08408824099509532 -0.017569757877838765
0.2026540980284452 0.08425341817260094 -0.018769419728266373
0.20065637512264922 0.0843385253546795 -0.02013216092954706
0.19933190831510628 0.08467559034775392 -0.020922146034999728
0.19696233957615877 0.08459860419012206 -0.02261085589918907
0.19545530481504975 0.08484986095310303 -0.023563528568571968
0.19300213047981846 0.08471904619024666 -0.025332736746570383
0.19207284596823754 0.08518545453627868 -0.025794479881555282
0.19095598904311722 0.08557315988932952 -0.02641940250174349
0.1898415183575749 0.08595755596644038 -0.027044113429431665
0.1885406856021568 0.08626149244284637 -0.02783185545909747
0.18724287589546457 0.0865612591807925 -0.02861930252592182
0.1863242507721004 0.08701292415705163 -0.029080159321259375
0.18559524247117642 0.08754067171648679 -0.029377729395714147
0.18496112556306404 0.08810634964762301 -0.02959370896093408
0.18545110993523178 0.08914709975430947 -0.028831296558394504
0.1842561216130097 0.08947386954858988 -0.02953648644585355
0.17718583835712676 0.08726950293384032 -0.035375434918728355
0.1682743761695376 0.08422701682655057 -0.042841326532504276
0.15855381352475123 0.08077937630379674 -0.05103707845223601
0.15536300900189554 0.08014203369107181 -0.05352858232666646
0.15218148256514002 0.07949135209589814 -0.05601905390950393
0.15113772679029924 0.07977530701706138 -0.05663624538685233
0.15000387957212263 0.0800145879416994 -0.05733459455699447
0.14924160681077503 0.08041684413018263 -0.05770722597909986
0.1470994138154723 0.08018909208982189 -0.05929994596741009
0.14597445882665505 0.08041586933160928 -0.05999741604824843
0.14485209194680954 0.08063900001123239 -0.06069462641833018
0.14391558125620435 0.0809435579694757 -0.061228990326892774
0.1430725401670389 0.08128808268732403 -0.06168192379922019
0.14213985390950773 0.08158732202055259 -0.062215940634294475
0.14130034946346698 0.0819269944972906 -0.06266854920981119
0.13800474253498457 0.08109239918159016 -0.06531391346140933
0.13708176750043605 0.08137788852188774 -0.06584695919372724
0.13616076840413716 0.08166064327518252 -0.06637979392892848
0.13379252393623914 0.08123568122374808 -0.06821104877166906
0.13278744703421758 0.08146516776706934 -0.06882437409575534
0.13241655758945126 0.08200296873668886 -0.06886959054536851
0.13177542022571437 0.08240650445609422 -0.0691581692076085
0.1310453845277001 0.08276368894337262 -0.06952774915615065
0.13004722902966642 0.08298355519350376 -0.0701404491235462
0.12932032944255328 0.08333636737513112 -0.07050977741097955
0.12850526063257495 0.08364174760132707 -0.0709600057595467
0.1279599495539343 0.08408226319861777 -0.07116705402253184
0.12732616809758968 0.08447578900334844 -0.07145504193915309
0.12678248013571536 0.08491414643269984 -0.07166199494560102
