ply
format ascii 1.0
comment pointcloud saved from Clarks Foot Scan v1.0
element vertex 779
property float x
property float y
property float z
end_header
0.2091909111793395 0.08426322242622099 -0.005820529040394429
0.20828600337168054 0.08422951840983973 -0.005195503063895435
0.20737843170871945 0.08419394339559595 -0.004570231469294028
0.20641724077980464 0.0842245605545374 -0.0038504855096539448
0.20555537254471815 0.08411707782661758 -0.0033190469867734884
0.2500729646753532 0.11825009889918049 -0.005768137401447437
0.25106973625769513 0.1142330271441437 -0.009884387682804807
0.25061459647853523 0.11347057122922995 -0.01019414512374639
0.2500890039460877 0.11286723111122347 -0.010318254045524389
0.24960059764330486 0.11218588104153722 -0.01053545643800935
0.2490769805039737 0.11158412748461709 -0.010659869211789297
0.248554231792436 0.11098310874574151 -0.010784385526526441
0.248032369451621 0.11038278245231002 -0.010909046769217112
0.24751137654698668 0.10978316778603849 -0.011033833646355573
0.24702860400704033 0.10910634680064087 -0.011251768197268641
0.24654711832150705 0.10843053109469016 -0.011469897092169001
0.24610469385585249 0.10767812138365106 -0.011781252258118824
0.2456639826173558 0.10692703337884972 -0.012092844979760542
0.245224961754061 0.10617728628418706 -0.012404622337439553
0.2447492542113561 0.10550600086571442 -0.012623473666979523
0.24427480812606608 0.10483575756735221 -0.012842477198061197
0.24376282159785956 0.10424335014630338 -0.01296847258847833
0.2432516901429157 0.10365162807274324 -0.013094583329587406
0.24274140377175307 0.103060619587677 -0.013220793038773881
0.2422319699553928 0.10247028626223757 -0.013347148662820274
0.24168371658751125 0.10195685566991856 -0.013380340106714128
0.24117576475074307 0.10136774713907713 -0.013506916550223902
0.24070874212353627 0.1007034309065351 -0.01372690858039799
0.24016237900095694 0.10019159838962598 -0.013760401946873113
0.23961644386970016 0.09968012255177607 -0.01379396075937539
0.23903019660970531 0.09924444956117744 -0.013734208537187653
0.23848487278657393 0.09873356407614027 -0.013767906550080922
0.23798110681399803 0.09814791348760508 -0.01389510585196696
0.2374368035732194 0.09763792650645119 -0.013928951517632793
0.2368929178422256 0.09712828401191025 -0.013962894593486097
0.23634944068576347 0.09661899550183752 -0.013996907768613454
0.23589033256822683 0.09596108740701846 -0.014218039508923364
0.2354324604002951 0.09530417516628832 -0.014439305416429793
0.23501824449379638 0.09457404681061428 -0.014754316100504872
0.23464829941976456 0.09377120240899804 -0.015163087656617114
0.23423760293593415 0.09304383094300327 -0.015478501451084092
0.23387161112833665 0.09224402142898998 -0.015887766276075188
0.233464437075384 0.09151938124082477 -0.016203603270072586
0.23305892717520385 0.09079600681347165 -0.016519661811065844
0.23261138117990382 0.09014718365928713 -0.016742214813854683
0.23220895807031716 0.0894262211102994 -0.01705865461046263
0.2317199922993013 0.08885241001892784 -0.017187801977814998
0.23123184038143463 0.08827923364995353 -0.017317084716635955
0.23074448654687352 0.08770671204945747 -0.017446483651458733
0.23021320388914757 0.0872073053100416 -0.017482202802533597
0.2296373624859237 0.08678053813311672 -0.01742417391490847
0.22901633234498697 0.08642593516823165 -0.017272328726548825
0.22844017895643612 0.08599905751389213 -0.017214336637949967
0.227818413668536 0.08564402612277623 -0.017062483155320607
0.22719616988474922 0.08528870210408206 -0.016910616490904196
0.22652745467503846 0.08500460989317647 -0.01666481456397423
0.22590404010400403 0.08464853804878729 -0.01651289766137226
0.22523373968739302 0.08436336261187045 -0.016267023280229997
0.22456252221265988 0.08407759301356373 -0.016021069278931543
0.22393723277281147 0.08372030549031441 -0.015869061679812224
0.22326440509346518 0.08343346195863226 -0.015623012906587186
0.22259067955334133 0.08314597891880103 -0.015376923820305255
0.221916021265339 0.08285790178895737 -0.015130760144838717
0.2212404546904922 0.08256919354243249 -0.01488452869431206
0.2205160783024459 0.08234997728735523 -0.014544158018590436
0.21979035604712505 0.08212983301552505 -0.014203655435971185
0.21819373470070427 0.08316521124834118 -0.012168309326543003
0.2174615207615623 0.08294036981046964 -0.011827252480973771
0.21677667831117828 0.08264510953186117 -0.011580268543397387
0.216188790185785 0.08221054233333676 -0.011521663205921184
0.215600816157541 0.08177596995976262 -0.011463082267853641
0.21501275649905635 0.08134138480324006 -0.01140452134276615
0.21432543104705365 0.08104453953543157 -0.011157431423682473
0.21244228162716983 0.08239609274805089 -0.008647077752625021
0.2103480282595825 0.0840137406584462 -0.005758361021014569
0.20949626459301937 0.08391204255832908 -0.005226977682880052
0.20854142959433306 0.08394525621259104 -0.004506677462853603
0.20768479798619754 0.0838400860190157 -0.003974880225256883
0.20677509704687555 0.08380127061222008 -0.003348490080743338
0.25021198694676694 0.12018935363377527 -0.003095654354886901
0.2507638754509298 0.11711908146281179 -0.006100921909004076
0.25150732584400476 0.1136642188417581 -0.009572702540767364
0.25105186151835407 0.11290266236006875 -0.009883071542111321
0.25056217062674446 0.11222118343611527 -0.010100574194584266
0.2500376365344378 0.11161926484892064 -0.010225185365453304
0.24951396487045785 0.11101808834266592 -0.010349906090335426
0.24902776789357672 0.11033936198122689 -0.010567888563081829
0.24850607118612777 0.10973975218652117 -0.010692902060577048
0.24802224166943837 0.10906294732685358 -0.010911181930629732
0.2475397124606977 0.10838714601567444 -0.011129650887063358
0.24705846314435737 0.10771238488545683 -0.011348265085260045
0.24665377383596065 0.10688371986362356 -0.011753530779020305
0.24621336271158212 0.1061340110045386 -0.012065771963348404
0.24573661059144147 0.10546275872398746 -0.012284974282720573
0.24526112992782684 0.10479253645872107 -0.012504318781874746
0.24478693815465902 0.10412330536349153 -0.012723849003248966
0.24423665164471464 0.10360842057365764 -0.012756865292186392
0.24372568586897803 0.10301741944655789 -0.012883295266310546
0.24321558461076564 0.10242709064173901 -0.013009865746598293
0.24266700948467987 0.10191365947238441 -0.013043159209916555
0.24211886204109512 0.10140060427843268 -0.013076529123105751
0.24161087315944016 0.10081203840074342 -0.01320342403836633
0.24110372343452274 0.10022416999755358 -0.013330410699929518
0.24055726104915678 0.09971254498175579 -0.013364052912440028
0.24001122014663823 0.09920128743526514 -0.013397768739475235
0.23946558950965208 0.09869040074862125 -0.01343156366527637
0.2389203771374873 0.09817987523796352 -0.013465429672435691
0.23841656589396687 0.0975947890420744 -0.013592926828119356
0.23787238229400104 0.09708515198425098 -0.013626967723419814
0.23732860625055008 0.09657587596560084 -0.013661083028877863
0.23682686970323868 0.09599247736299495 -0.013788909549857564
0.236409628403706 0.09526113911439262 -0.014104163247737944
0.23599407513234277 0.09453105700966284 -0.014419625463121144
0.23558016347591165 0.09380229915382553 -0.014735278407964514
0.23521039349937328 0.09300097491628966 -0.01514485341184063
0.2348427113531698 0.09220123867637599 -0.015554697315324773
0.23443420101725151 0.09147665725739047 -0.015870992571362985
0.2340273516299149 0.09075335093658883 -0.016187515670746444
0.23357883782879524 0.09010455931875282 -0.016410394338533307
0.23313155734909716 0.08945672934646869 -0.016633459717857624
0.23268550051287262 0.0888098782852312 -0.016856653603129046
0.23219672366809974 0.0882367418938783 -0.01698615771399259
0.2316645935908731 0.08773685464753013 -0.017021874848512253
0.2311772142677732 0.08716486084593662 -0.01715158018411944
0.23060146563566106 0.08673810003614259 -0.01709352538613662
0.23002567858325867 0.08631135366941657 -0.01703549097167567
0.22940483040906262 0.08595661629636474 -0.016883511940184115
0.22882872481281138 0.08552976630022428 -0.016825520281146478
0.2282071514907631 0.08517458839611593 -0.016673522933625562
0.22758509404606486 0.08481912540392154 -0.016521518455145823
0.22691671590751675 0.08453471320032414 -0.016275428463302655
0.22629349767468201 0.08417849027760911 -0.016123363724877715
0.2256235383288781 0.08389299000607016 -0.01587719727011838
0.2249526555527819 0.08360690255943991 -0.01563095717048618
0.22428086631714694 0.0833201970675576 -0.015384656102071459
0.22360817908442948 0.08303285587147556 -0.01513831691381412
0.2229345728299791 0.08274491124652388 -0.014891893492337216
0.22226004978038696 0.08245634871610404 -0.014645412468649643
0.22158460495420315 0.08216716848840643 -0.01439887554492364
0.22086050504653837 0.08194729439103453 -0.014058045136448982
0.22013505001789474 0.0817265049349291 -0.01371709291838119
0.21830043497787413 0.08310629831228052 -0.011207261672592062
0.21756743430589892 0.08288003392199032 -0.010865615349242352
0.21693027410025403 0.08251417046753064 -0.010712572335838444
0.2163413846932118 0.08207884456088906 -0.01065385669310831
0.2157524133829633 0.08164350863726748 -0.010595161441082968
0.21521256443481476 0.08113932271231462 -0.010630868828206963
0.21457419590955573 0.08077280854142034 -0.010477842397724535
0.21269416526205367 0.08211946408628386 -0.007963693190726484
0.21060362746778374 0.08373150030802799 -0.005070658593825772
0.20975199640242964 0.08362849919156805 -0.004538461137795324
0.20884786631999316 0.08359199053145415 -0.003911602695003014
0.2079915929253282 0.08348566472249837 -0.003379038403014012
0.25083359419452544 0.11921255995658302 -0.0032396955087890533
0.2514524422272151 0.11599098766443343 -0.006436068817141816
0.25194456578937524 0.11309588912314376 -0.009261399091952616
0.2514887669277523 0.11233526031568401 -0.00957236327108446
0.25099889644902806 0.11165449501302534 -0.0097903618815266
0.2505103282973341 0.11097476311024908 -0.010008494765249343
0.24998683720144005 0.11037428634196945 -0.0101335890427936
0.24950065838008845 0.10969645210332384 -0.010352069936945707
0.2489791253520245 0.10909756567604366 -0.010477404671807966
0.24853219119163056 0.10834387444839429 -0.0107895055440973
0.24804989337063302 0.10766912792113857 -0.011008461505999434
0.24760616951581416 0.10691795195215366 -0.011320962772892185
0.2472016402977681 0.10609084723204133 -0.011727023851389351
0.2467238426545978 0.10541961176722688 -0.011946568236646637
0.24624732494003937 0.10474940479492902 -0.012166251246251758
0.2457339741484381 0.10415700413691108 -0.012292684406742915
0.24525981303874167 0.10348864711133164 -0.012512698867969407
0.24470982619609383 0.10297432106329392 -0.0125459000983425
0.24416028746112506 0.10246035049436551 -0.01257919521883022
0.2436501511578481 0.10187056192173367 -0.012706082166516808
0.24310167846542316 0.10135750746532411 -0.012739555952392512
0.24255363647333833 0.10084481950864725 -0.012773099872903593
0.2420456055749764 0.10025681262848003 -0.012900288557712969
0.24153842550420462 0.09966947572100603 -0.013027620775305615
0.24099207555161062 0.0991582153133276 -0.013061433288613866
0.2404461381007697 0.09864732742507694 -0.013095325127322865
0.23990061264267348 0.09813681558360664 -0.013129298446874438
0.23935550395858485 0.09762666381173511 -0.013163342696694336
0.23885166441487346 0.09704211113833129 -0.013291150382266026
0.23830759175686578 0.09653283758223986 -0.013325361427274307
0.23780520738468008 0.0959494619638367 -0.01345340699965053
0.23734512595981405 0.09529247610043946 -0.013675334023438235
0.23692800525692423 0.0945623046517353 -0.013991244316762075
0.236554452493069 0.0937594500392845 -0.014401157643842033
0.23614087438325465 0.09303201311619459 -0.014717486558994353
0.23581360674858806 0.09215853431364017 -0.015221737810353075
0.23540375738447497 0.09143401353160584 -0.01553849325723905
0.23499557696823245 0.09071075816389483 -0.01585546853006259
0.2345460734995537 0.09006202090907446 -0.01607869271750445
0.23409781865551416 0.08941422932113897 -0.016302089718223944
0.2336073941631557 0.08884032755636041 -0.016431649833398343
0.23316138342721315 0.08819432246132343 -0.016655342686179964
0.23262898659137604 0.08769445202450986 -0.016691154172011113
0.2320969684542893 0.08719492511557451 -0.01672703935037323
0.23160954892103536 0.08662347993689316 -0.016857032017533136
0.23098962970662446 0.08626900190853802 -0.01670493959389835
0.23041388170182592 0.0858422923306779 -0.016646913550861453
0.22979323558576864 0.08548739640895713 -0.016494780642161755
0.22921717940893582 0.0850605713734537 -0.01643678737056098
0.22859579330768798 0.08470525124508947 -0.016284650091307418
0.2279739323875412 0.08434963731286767 -0.016132497795890932
0.22730588471158708 0.08406490802233081 -0.015886123483431103
0.22663695347389143 0.0837795459303756 -0.015639708100053995
0.22596710592348054 0.08349359023022422 -0.0153932131720656
0.22529635015010713 0.08320702298633216 -0.015146661510633319
0.22462468391755053 0.08291984253911829 -0.014900052889122384
0.22395212992342095 0.08263201836342522 -0.014653398356995972
0.22327863918176846 0.08234360493965 -0.014406673244388823
0.2226042431348991 0.08205456261196832 -0.014159880658901225
0.22192893675552186 0.08176488714083595 -0.013913055324494883
0.22120509937532412 0.08154437659566001 -0.01357174619194118
0.2204799230632827 0.081322930956841 -0.013230334467755123
0.2184567648648096 0.08297595905296172 -0.010339034785929957
0.21772319087314235 0.08274841786801491 -0.009996849226013071
0.21708515918373605 0.08238163870989253 -0.00984353037170349
0.2164952827301989 0.08194554122892402 -0.009784692624242697
0.2159053106473099 0.08150944306983275 -0.009725884911521598
0.2154624957532268 0.08086728585596671 -0.009950735910822628
0.21487297553381038 0.08043163628934859 -0.009892037997045189
0.21294679391161683 0.0818418882577112 -0.007279571868569479
0.21085995629277726 0.08344833752664198 -0.004382167242173218
0.21000847620814683 0.08334401087077616 -0.0038492081346317986
0.2091547700850428 0.08323811419766573 -0.003316069771812369
0.2514882578546963 0.11815897584964165 -0.0034787974644864272
0.2521036567781591 0.11494460661321161 -0.0066803387861387176
0.25234620524853024 0.11260672225511013 -0.008857184874459745
0.25188987014485786 0.11184683577386671 -0.00916873915923161
0.25143526968495644 0.11108827127248695 -0.009480524342096508
0.2509465139564886 0.11040927881104558 -0.009699134796821995
0.25045906395400475 0.10973130953943962 -0.009917943715145039
0.2499729078064653 0.10905437519048418 -0.010136890462182913
0.249488059929952 0.10837844639460158 -0.010356024895609328
0.24904120767964244 0.10762598799590843 -0.010668760944320232
0.2485960856006625 0.10687484825791684 -0.010981727437854583
0.24815266236897018 0.10612504790729575 -0.01129487501199189
0.2477109573458856 0.10537656905472208 -0.011608258439648966
0.2472333980717305 0.10470638574467554 -0.011828286123850673
0.24671935394922268 0.10411398601449016 -0.011954940344912401
0.24620617031801273 0.10352229127314046 -0.012081719293882687
0.24569384173348366 0.10293130970390392 -0.012208593806586066
0.24514397229542792 0.10241733191961562 -0.012241990039958905
0.2445945350123146 0.10190373342989235 -0.012275463176472379
0.2440843566464896 0.10131449940704797 -0.012402676915497235
0.2435359894055645 0.10080181218791327 -0.012436324708694768
0.2429880518469627 0.10028949852321632 -0.012470046947411384
0.24247998288569714 0.09970204135090631 -0.012597558414855159
0.241972766279047 0.09911524356923192 -0.012725206948756784
0.2414265165238931 0.09860435821491746 -0.012759199557987655
0.24088068550635744 0.09809384219768157 -0.012793267710550171
0.2403352760078807 0.09758368196130791 -0.012827402860222159
0.239790262549412 0.0970739215871703 -0.01286160250376267
0.23928639818651604 0.09648988498549445 -0.012989745270334474
0.238783358262777 0.09590653442725584 -0.013118013525086403
0.2383222788207358 0.09524958501500032 -0.013340278601233269
0.23790380567232705 0.0945194642457609 -0.013656647725595994
0.237486991355632 0.09379065707197894 -0.01397319608212183
0.23711362415154866 0.09298930254369571 -0.014383933701553775
0.23674232859829475 0.09218957188412373 -0.014794894598258723
0.2364153071600223 0.0913179354630743 -0.015300108788019684
0.2359635958500163 0.09066824647864098 -0.01552353288728181
0.2355131079177915 0.09001955182849937 -0.015747094293677488
0.2350638646606082 0.08937181162942072 -0.015970834734155115
0.23457281018309412 0.08879794218324567 -0.016100613501703998
0.23408257856657638 0.08822470633430772 -0.0162305241395852
0.23359315167214428 0.08765213018072927 -0.016360551646290244
0.2330608641010998 0.08715262200096187 -0.01639653311185313
0.23252896297186096 0.08665344747505181 -0.016432580226570737
0.23199743063123163 0.08615462915648171 -0.01646867583113215
0.2313777021946803 0.08580000373348169 -0.01631643942220612
0.23080200086407102 0.08537332098403007 -0.016258413695413032
0.2301815413165832 0.08501828235400895 -0.016106140788878898
0.22960553799975805 0.08459147702231702 -0.01604814183935238
0.22898433874660723 0.08423601439310009 -0.015895864590593667
0.22836266830149848 0.08388025284149843 -0.015743568279195763
0.22764939259232161 0.08366621371104656 -0.015402557082997204
0.22698058123977172 0.0833803782549344 -0.015155836037558434
0.2263108579468545 0.08309394462529264 -0.014909031476576962
0.22564022754908508 0.0828069002817007 -0.014662170295469013
0.2249687030175726 0.08251921919592813 -0.014415269179028967
0.22429625383756402 0.08223094222077813 -0.014168289880197582
0.22362289958873702 0.0819420404222679 -0.013921245339472477
0.2229486217998946 0.08165252742799124 -0.01367414913404763
0.22227345116793598 0.08136236302893017 -0.013427004295978484
0.22154988226883085 0.08114120432532014 -0.013085243448079431
0.21949020547118592 0.08286355643264222 -0.010095764467727919
0.21866227699239255 0.08277472499851272 -0.009564035846742813
0.21788025766897853 0.0826151850970858 -0.009126752631009594
0.21728967678679478 0.08217849063686418 -0.009067801558103772
0.21665048922272537 0.0818106115453371 -0.00891422872331571
0.21610825809549372 0.08130507505602057 -0.008949966068647619
0.2157620951317266 0.08052581989391953 -0.009364504766417425
0.21522136489186935 0.08002151442114451 -0.009400460433407642
0.2132001551595998 0.08156339221094551 -0.006594661924128387
0.21116659523617673 0.08309619819524568 -0.00378766472563713
0.21031546140229498 0.08299071876134533 -0.0032539439723996977
0.2521408754432467 0.11710795020915048 -0.0037199961941166704
0.2526830549572522 0.11405806612281942 -0.006739874631553344
0.2526775818329369 0.11227468721336377 -0.008266175991478497
0.2522909116954252 0.11135854119684084 -0.008765208113923284
0.25187129226192884 0.1105225331704248 -0.009171072806772707
0.25141808442917524 0.10976624061582586 -0.009483663523110308
0.2509306641083574 0.10908914078013009 -0.009702954374753936
0.25048068647076666 0.10833537433987904 -0.010015945294421569
0.2499960709541722 0.10766048882548022 -0.010235595444222312
0.24954932205714198 0.10690923570474477 -0.010548979798714775
0.24914106638463643 0.10608207168528531 -0.010956192681994714
0.24866096450903452 0.10541071163854877 -0.011176399593170017
0.24821934888631483 0.10466345945842333 -0.011490412335282751
0.24770461539633337 0.10407106750258517 -0.01161729022562652
0.2471907389070138 0.10347938185016044 -0.011744294697140889
0.24667772197302795 0.10288840100056605 -0.011871388568242658
0.24612751732323235 0.10237442437020068 -0.011904892078646312
0.2455777543184819 0.10186081845692717 -0.011938464625872725
0.24502842197786 0.10134759073183126 -0.011972113925149852
0.24451820107668998 0.10075890309768191 -0.012099649993539519
0.24396993877825635 0.10024658664317461 -0.012133473949500706
0.24342209569986759 0.09973466382301786 -0.012167351506392976
0.24287468229417242 0.09922309842111933 -0.012201329913178405
0.24236722494636587 0.09863667650172851 -0.012329267446660686
0.24182086992895857 0.09812600591142077 -0.012363414914982662
0.24127493466718644 0.09761569760348658 -0.012397633615752746
0.24076955863487573 0.09703103559381614 -0.012525868237933058
0.24022466834406733 0.09652161213998632 -0.012560254640430812
0.23976133802728583 0.09586369468187496 -0.012782724095193543
0.2392992538594074 0.09520677674201793 -0.01300532654379516
0.2388384267658777 0.09455083026541529 -0.013228113697171251
0.23846125550379904 0.09374795742082144 -0.013639167699817378
0.23808618189864997 0.09294667596141841 -0.014050489390941445
0.23771318692560234 0.09214701574157112 -0.01446203065281454
0.23734228118323958 0.09134895287741736 -0.014873810136810217
0.23697344880928883 0.09055250293272891 -0.015285841684529844
0.23652219921666842 0.08990398058305941 -0.015509778260573592
0.23602970415912175 0.08932947108289487 -0.015639689035888804
0.23558070083419042 0.08868276076808164 -0.015863899691570094
0.2350471587400922 0.088182423093687 -0.01589981139741181
0.2345571049784371 0.08760987766753749 -0.0160300556654569
0.23402454506168918 0.08711038605602515 -0.016066133123123105
0.23349237763626035 0.08661122477772255 -0.016102272428988817
0.2329605692367283 0.08611243589213181 -0.016138472477444654
0.2323852215039272 0.08568587888181221 -0.016080405340822168
0.2317656791001841 0.08533111035290387 -0.01592802887976369
0.23119002541865186 0.08490445125025427 -0.015870001360988206
0.2305697479742097 0.08454927440811703 -0.015717592418107884
0.2299937903998152 0.08412249521334149 -0.015659593690394102
0.22932778496369832 0.08383803190959042 -0.015412720104231059
0.2287060958569464 0.08348196362553105 -0.015260256374396097
0.22799309634591142 0.08326725812450371 -0.014918816236247134
0.22732439455253386 0.08298096558019806 -0.014671766490944427
0.22665479514440684 0.08269405374446905 -0.014424652259197424
0.2259842858861985 0.08240653306256134 -0.014177483336131003
0.2253128839850609 0.08211837674486035 -0.013930274628822292
0.22464056306219046 0.08182961699828968 -0.01368298168829396
0.2239673310710349 0.0815402396912542 -0.013435629518927794
0.22324630182373612 0.08131996554021807 -0.013093596291942178
0.22257102580115362 0.08102919234107946 -0.012846105383495454
0.22189483525586154 0.08073779120760881 -0.012598550482057602
0.21969682848325414 0.08266251027383163 -0.0093205183679958
0.21882109307581424 0.08264132211784948 -0.008693286694540336
0.21799068701954685 0.08254929640247678 -0.008160576372499673
0.21754337107785593 0.08190527543552124 -0.008385770226285505
0.2168553912439765 0.0816054056993291 -0.008137214652394975
0.21626363981948463 0.08116792454412829 -0.008078191295843418
0.21474468124708554 0.08202885346911405 -0.006217463324917127
0.21390370437952627 0.08192928736678169 -0.005683853828451935
0.21355269370810329 0.08114790676879059 -0.006098733274099821
0.2114736942376937 0.08274345084035341 -0.003192707760285074
0.25275691750611134 0.11613809296750517 -0.003869763283824934
0.25315672157033986 0.1134088675685813 -0.006520219474298206
0.2530793804067466 0.11178544707992101 -0.00786186975542591
0.25269189110665746 0.11087036842351396 -0.008361765673186028
0.25230695924433655 0.1099572853627639 -0.008861975955937906
0.2518890253220223 0.10912400825105169 -0.00926884793447641
0.2514374248563961 0.10837010744994695 -0.009582279110772474
0.2509875460538022 0.1076175385207568 -0.009895950904741546
0.25053938151564226 0.10686631651545848 -0.010209803134770545
0.25009293370490593 0.10611643103799971 -0.010523864662855209
0.24964821359288003 0.10536785848111517 -0.010838154178141823
0.24916834012339367 0.10469755100552734 -0.011058847792605908
0.24868976347122002 0.10402824839300566 -0.011279732346712978
0.24817519514180766 0.10343656477480088 -0.011406958029887782
0.2476614843316953 0.10284560006883652 -0.011534281734417284
0.24711094152474378 0.10233161069117434 -0.011567885602256689
0.2465608443262703 0.10181799887711869 -0.011601561115630266
0.24601117779192544 0.1013047652512407 -0.011635313381054613
0.24546194439432836 0.10079191555366761 -0.011669144856151226
0.24495169244773823 0.100203763309775 -0.011796993383235865
0.2444035216478901 0.09969183548703313 -0.011830972355193037
0.2438557864839907 0.09918026950809898 -0.011865052781402874
0.24330848252943987 0.09866906650154504 -0.011899201186806319
0.24276159778530426 0.0981582409931621 -0.011933429597514977
0.24225473358938934 0.09757288409046387 -0.012061780369855446
0.2417088992704642 0.09706295138908737 -0.012096179242093053
0.24120348995651272 0.09647882311009255 -0.012224726096333571
0.24069892977915064 0.09589534792841244 -0.012353407483865375
0.2402760562936771 0.09516405515384811 -0.012670478379938455
0.2398142247107086 0.09450814423019017 -0.012893605136756026
0.23939449106218796 0.09377928317610111 -0.01321105162940428
0.2390585655867471 0.09290412326912138 -0.01371714220540543
0.23868386658515942 0.092104533973786 -0.014129265572391192
0.2383112551871378 0.09130654473170614 -0.014541629203624062
0.2379407261386225 0.0905101633589709 -0.014954239187704721
0.23753038889225825 0.0897885212312934 -0.015272812256112656
0.23703746753199045 0.08921419520990824 -0.015402962326456715
0.23654536090254916 0.08864053291523645 -0.01553319283949084
0.23605407579343055 0.08806751493815772 -0.015663561708068874
0.23552084898287357 0.08756770022506173 -0.015699668687132573
0.23498801192532415 0.08706822552829328 -0.015735843857960563
0.23445557159513675 0.08656908040335053 -0.015772079099270864
0.23392350008377039 0.08607029931838135 -0.015808367247543642
0.23334822806489827 0.08564375554196556 -0.015750283507007024
0.2327729134466574 0.08521723872759597 -0.0156922285545677
0.23215356214343058 0.0848623191383918 -0.015539705933889869
0.23157795592462363 0.08443568354424581 -0.01548167660424582
0.23095786755758155 0.08408035804549056 -0.015329123503737274
0.23038195479385912 0.08365360429613929 -0.015271124903404987
0.22971627926128108 0.08336882349055351 -0.015023966939966604
0.22904971007738653 0.08308343024005906 -0.014776747098795395
0.22833697443869777 0.08286807706538486 -0.014434856985245714
0.22766839341217784 0.08258130790616657 -0.014187499460212027
0.2269989175161376 0.08229391758775349 -0.013940075519927042
0.2263285420959895 0.08200590214719823 -0.013692619926124916
0.22565725226285488 0.08171728279298608 -0.013445078359158535
0.2249387270710661 0.08149792637102192 -0.013102731783998345
0.22426541484988646 0.08120789934269916 -0.012855073455713462
0.22354443168944477 0.08098683592558752 -0.012512543983045299
0.22296299674559977 0.08055659316120116 -0.012454330021383186
0.22068320548543122 0.08261963863484177 -0.008982539901464193
0.21985710391624969 0.0825292766349343 -0.008449400672209062
0.21898122040584553 0.08250629546552755 -0.007821202759680124
0.21810271806374484 0.08248144105735654 -0.007192779162275453
0.21659734487988447 0.08334695380586561 -0.005330320537095534
0.21590379063156334 0.08304238866286594 -0.005080884406575503
0.21520929425389557 0.08273720294199217 -0.004831361700942727
0.21475712741659256 0.08209055822475093 -0.005056615686907684
0.2139152276082357 0.08198890133607571 -0.0045221181227036444
0.21277667982726015 0.0822927800602407 -0.0034173607351980495
0.25330240155138783 0.11532740617589725 -0.0038339462250883694
0.2535259524371259 0.11299540544499438 -0.006020160324859747
0.2534811164046358 0.11129630890063989 -0.007457641044555652
0.25309280132485945 0.11038234345993149 -0.007958428778374604
0.25274229053871955 0.10939249474438366 -0.008553279789651758
0.2523593246457259 0.10848261237869343 -0.009054673652657663
0.25194327498562513 0.10765222149229904 -0.00946257747381224
0.25149348311077696 0.10690087349542983 -0.009776876124615363
0.2510454194074361 0.10615084658022726 -0.01009140722459384
0.25059907098654616 0.10540215953421149 -0.010406114449748649
0.25011794076163885 0.10473170379226514 -0.010627159541683195
0.24963809395597938 0.10406227522825766 -0.010848341404703421
0.24912261809127118 0.10347044137919505 -0.010975770853480171
0.24860800722651383 0.10287930414968528 -0.011103318866019785
0.2480942513722258 0.10228889178073365 -0.011230969059707774
0.24754381150794347 0.10177527558866399 -0.011264751094662795
0.24699381077987564 0.10126203606200386 -0.011298606326234306
0.2464442456973862 0.10074917451533101 -0.011332536607684351
0.24589512175093348 0.10023668721310251 -0.01136653808139898
0.24538481131626166 0.09964910517336066 -0.011494691950874436
0.24483675243054737 0.09913752934991112 -0.011528869783445306
0.24428912271814787 0.09862633060825184 -0.011563124216977028
0.24374192072446094 0.09811549615355052 -0.011597448482964401
0.24319514244984208 0.0976050308277374 -0.01163184659011135
0.24268823870020972 0.09702022252650898 -0.011760519993996355
0.24218215865395704 0.09643611585170365 -0.011889292406142282
0.24167693797980333 0.09585265424993354 -0.012018191560806635
0.24121262489217166 0.09519563977609267 -0.01224148395232394
0.24078985730501964 0.09446553464272338 -0.012559192376969563
0.2403687602300636 0.09373673173918488 -0.012877105415884715
0.23999006016361368 0.09293543004305439 -0.013289569182567351
0.23965436381371996 0.09206213550324484 -0.01379660559667939
0.23928005038698053 0.09126421476471173 -0.014209549328673021
0.238907818055332 0.09046790486968213 -0.014622741493411362
0.23849612832723735 0.0897463251099143 -0.01494178001027352
0.23804432844570136 0.08909903892908584 -0.015166554741547378
0.23755179797652845 0.08852554971714117 -0.015297053411606143
0.23701789848834134 0.08802539979986408 -0.01533318491183605
0.2365267911840387 0.08745306830332601 -0.015463885198477467
0.23595127507073693 0.08702613640488381 -0.015405659747136147
0.2354185584814599 0.08652700494392924 -0.015441990583938858
0.23488620578651845 0.08602824948873282 -0.01547838265673468
0.23431101842899923 0.08560170215579328 -0.015420269976910206
0.23373579075491985 0.08517518347905569 -0.015362186316539461
0.2331605285739365 0.08474868214965299 -0.015304123436301498
0.23254135588311928 0.08439362566291043 -0.015151466632539523
0.23196579400910508 0.08396701516844267 -0.015093437383061348
0.23134589425358376 0.08361154066732336 -0.014940740077709014
0.23077002848670736 0.08318481008072963 -0.01488273961929254
0.23005996505666573 0.08297051895324507 -0.01454056423456812
0.2293935164532771 0.08268464894953954 -0.014293036594779707
0.22868104245071386 0.08246864644163741 -0.013950696279194486
0.2280125865633995 0.08218139610217308 -0.013703027003498403
0.22734322431663986 0.08189353560195224 -0.013455301183220858
0.22662720427921218 0.08167506546649146 -0.013112694181951767
0.2259558310076571 0.08138580623385062 -0.012864817518526084
0.22523736631880714 0.08116563117623322 -0.012522024555356948
0.224517556471878 0.08094454034350156 -0.01217910637825037
0.22384302860417257 0.08065311179448502 -0.011931007114434289
0.22166928992803697 0.08257682713925125 -0.0086446884838422
0.22084508872764247 0.08248640324738253 -0.00811090980202378
0.21992421221610164 0.08253228334443986 -0.007386966620035962
0.21900029446355246 0.0825759806224567 -0.006662757150179277
0.21807334821433513 0.08261748110883597 -0.0059382694418869675
0.2169039817051322 0.08299909629548617 -0.004738274149522326
0.21616224497507697 0.08276221304979135 -0.004393405207633649
0.21541917083057374 0.08252436799221642 -0.00404845361216144
0.21482026193663853 0.08208159844809156 -0.003988718107944822
0.21402636663351743 0.0819101799484351 -0.0035484635435758527
0.2538466935215584 0.114518220721736 -0.003799356847179358
0.2537575343831106 0.11289432412790947 -0.005144497137417825
0.2539174660690466 0.11072933350683765 -0.0071473861948757045
0.2535285405044123 0.10981660200892336 -0.007649065494007901
0.2531772727373834 0.10882816749397721 -0.008244956543731141
0.2528643182894432 0.10776449692290928 -0.00893511474420211
0.25244820909726856 0.10693549553819846 -0.009343787277908244
0.2519985180572394 0.10618534263142503 -0.009658764798660846
0.2515505427724581 0.10543653775493077 -0.009973922906563293
0.2511042922047596 0.104689043586236 -0.010289308699487854
0.2505870298881018 0.10409637259280834 -0.010416797741362338
0.25010721471808944 0.10342780659601129 -0.01063849255514071
0.24955512161578097 0.10291310015432333 -0.010672184284964858
0.24904045924421392 0.10232253049980881 -0.01080003393337109
0.24852666833523168 0.10173264222686464 -0.010928026998832163
0.24797633043181327 0.10121939458664762 -0.010961984894371113
0.24742642817397328 0.10070652492641786 -0.010996017839788597
0.2468769660341531 0.10019403656533753 -0.011030126288354258
0.2463279370672922 0.09968192044411718 -0.011064307329176903
0.2457793347745451 0.0991702034891843 -0.011098542726379945
0.2452311636453054 0.09865884505889698 -0.011132879124566064
0.24472210342053377 0.09807284248973651 -0.01126156350658375
0.24417500138788847 0.09756237900785296 -0.011296065637507013
0.2436283273103542 0.09705228389347355 -0.011330639831872658
0.24316068290848608 0.0963934888420515 -0.011553950014422776
0.24265478499355606 0.0958100596347188 -0.011683082895490193
0.24218945972601819 0.09515307110133951 -0.011906711904012768
0.24176532474899776 0.0944230172720061 -0.012224884266213876
0.24134286601103005 0.09369426601750676 -0.01254325961605729
0.24096245459827612 0.09289302591000194 -0.012956302539189002
0.24058412689916692 0.09209341471835804 -0.01336956775509851
0.24024866813727652 0.09122196788677096 -0.013877572856261344
0.23987473028627418 0.09042572780986587 -0.01429134697502249
0.23950289487346424 0.08963106314097004 -0.014705378231687383
0.23905030402535382 0.08898398269152348 -0.014930520827442784
0.23855734478084062 0.08841067121823092 -0.01506125633490879
0.2380233680641229 0.08791069048300369 -0.01509750801588755
0.2374897865046127 0.08741105377475826 -0.015133828436331376
0.23695659972960664 0.08691176081689776 -0.015170217558467869
0.2363813376999631 0.08648500967300839 -0.015112013443749406
0.23584871200016963 0.08598626248667622 -0.01514849702778881
0.2352735968124378 0.08555972185229728 -0.015090365177832799
0.23469845142718565 0.08513320176340426 -0.01503225454475371
0.23412326337614164 0.08470671249236876 -0.014974174900068582
0.2335480387251955 0.0842802429204841 -0.01491611803042503
0.23292905566737476 0.08392503428434563 -0.014763314918314618
0.23235353939256864 0.08349844591539722 -0.014705283669105507
0.23173382350351673 0.08314282670065047 -0.014552446092068294
0.2311136396836621 0.08278691098374137 -0.014399589782901068
0.23040384407556447 0.08257196339843186 -0.014056958201971559
0.22973751232985284 0.08228561337006003 -0.013809157619731227
0.22902529712772218 0.08206897164838538 -0.013466338202342332
0.22831175227512251 0.08185141343643378 -0.013123423755048103
0.22764231579780547 0.08156289595203024 -0.012875385762796066
0.22692634161083644 0.08134363246994776 -0.012532280284857755
0.226209046881168 0.08112342750733871 -0.012189098277297916
0.2254904176016334 0.08090229902193276 -0.011845783302800228
0.22477045060845893 0.08068024415716986 -0.011502370274188656
0.2240956355602222 0.08038800449112142 -0.011253939463532536
0.22178610381375172 0.08251266189938063 -0.007677455454469351
0.22091451145717692 0.08248937809209907 -0.00704772156220268
0.21999320093028 0.08253298744247377 -0.0063226330867750535
0.219021541655038 0.08264301026019781 -0.005502119499753488
0.2181414876416082 0.08261362247801209 -0.004871627358123964
0.21711559732163507 0.0827872478610162 -0.0039553349259626724
0.2163735141747762 0.08254922055902343 -0.0036099651136983213
0.21558190867284022 0.08237824396026079 -0.003169231951230811
0.21493362949428726 0.0820025359350386 -0.0030141263594587464
0.254287459835395 0.11394492042850073 -0.0034841225299018785
0.2540934526388754 0.11255771222652579 -0.004549492470978411
0.25428440380117323 0.1103184539744342 -0.006649480519252848
0.253963934551679 0.10925133077240363 -0.007340077738718198
0.2536119138034054 0.10826430561612889 -0.007937004818183657
0.25336839739675904 0.10704752644088032 -0.008816493832266903
0.25298761526306063 0.10614273245711488 -0.009320068854498986
0.2525026334592687 0.10547098477399024 -0.00954157338443995
0.25205476053633175 0.10472336440553419 -0.009857403895966454
0.2515725840457716 0.10405382751635396 -0.010079265568622764
0.25105548738906175 0.1034618451970276 -0.0102071266522607
0.25053927169466905 0.10287055181797793 -0.010335096882261363
0.2499872820440382 0.10235621503452998 -0.010368964623759303
0.24947257215567636 0.10176619197690089 -0.010497138303702525
0.2489587417291882 0.10117684061698158 -0.010625447383292796
0.2484084968055394 0.10066396657873782 -0.010659586850291725
0.24785869647235176 0.10015147715880564 -0.010693802273708475
0.2473093313119456 0.0996393575577683 -0.010728088285030246
0.2467603973343062 0.09912762875373564 -0.01076242248858672
0.24621189597477644 0.09861627126918086 -0.010796864461631472
0.24566382982423973 0.098105271915076 -0.010831370405166019
0.24515472706412306 0.09751981573461056 -0.010960377116548459
0.2446464759228446 0.09693503452776665 -0.011089494414469603
0.24410009931259768 0.09642548480715742 -0.011124246706220808
0.24363249630908934 0.0957675361375739 -0.0113480575867827
0.24316615137136477 0.09511057970116425 -0.011572029074276513
0.2427406460228484 0.09438057496309195 -0.011890665071853324
0.2423168149135625 0.09365187522081887 -0.012209506061424347
0.2419346849006225 0.09285070693899393 -0.012623136233957777
0.24155464209196326 0.09205116625845215 -0.01303698684600696
0.24121712202786647 0.09117979856297588 -0.013545692335568238
0.24084147655759455 0.09038362284066488 -0.0139600459885032
0.24046793050767595 0.08958903200203334 -0.014374663094577356
0.24005540255247632 0.08886902534164141 -0.014694821775932454
0.2395620066696389 0.08829589748691212 -0.014825799944999218
0.23906942706269407 0.08772343790204455 -0.014956896153836441
0.2384942874640861 0.08729661750934221 -0.01489861395900166
0.23796101462538977 0.08679751111588245 -0.014935100375174593
0.23738603560867433 0.08637090752452604 -0.01487688963058309
0.23681102147687066 0.08594434425978646 -0.014818712846657034
0.23623598156994124 0.08551780091744716 -0.014760555520777041
0.23566090560924738 0.08509128939488618 -0.014702427646373362
0.2350858008918002 0.08466479558195071 -0.01464431892783602
0.2345106538113827 0.08423833281160768 -0.014586241228382757
0.2339354741074136 0.08381188488119791 -0.014528182292906422
0.2333166741473614 0.083456530960951 -0.014375238831205395
0.23274119881988786 0.08302996907540779 -0.01431720952486737
0.23212166567919507 0.082674204317243 -0.014164231562827923
0.23145745196711487 0.08238875498933716 -0.013916230795118056
0.23074791287738794 0.08217316208293947 -0.01357315290753952
0.23008171077953476 0.08188632250503876 -0.013325034410491099
0.22932489441944998 0.08173919212074658 -0.012886712482485685
0.228611410951501 0.08152081202238608 -0.012543349529513248
0.2278965980152292 0.08130151607753384 -0.012199856331631731
0.22718047226293692 0.08108127657619325 -0.011856282973149557
0.2264630133152873 0.08086011846239248 -0.011512578992033673
0.2257442193992269 0.08063803210146332 -0.011168775027996902
0.22507022547237965 0.08034578090769894 -0.01092007651821697
0.22258857819255712 0.08274610571489528 -0.006958273603722198
0.22190452586535978 0.0824465309071958 -0.006708599922299829
0.22098581385563085 0.08249004977215026 -0.005982633765748757
0.22006407931248895 0.08253137627101663 -0.005256389975121678
0.21913931050961072 0.08257051732168703 -0.004529876190101534
0.2182588912071998 0.08253918315461155 -0.0038984002122500194
0.21732825890795693 0.0825740937487099 -0.0031713605958865188
0.2546599479555659 0.1135280028604216 -0.002981038889936727
0.2544982341487496 0.11206495704800983 -0.004142250836608519
0.25458278802413054 0.11006261204585348 -0.005963088399641048
0.25436438186739957 0.10876400884045966 -0.006937285413628258
0.2540462177364301 0.10770090426890845 -0.007629420604305437
0.25390658645867165 0.10625455572006738 -0.008793009676321684
0.253490588241211 0.10542847961111361 -0.009203300173693696
0.2530058482415995 0.10475776218426498 -0.009425345575480693
0.2525224016241355 0.10408807151897444 -0.009647524344009006
0.25204025880525616 0.10341938308759459 -0.009869890345656163
0.25148725031320895 0.10290448934512962 -0.0099037673888287
0.2509709820843601 0.10231375445960068 -0.010032069969953816
0.2504190769510427 0.10179980893707367 -0.010066096433971772
0.24990433898925868 0.10121030734629656 -0.010194609279163935
0.24935354272208152 0.10069726234736061 -0.01022882749774634
0.24880318755472952 0.10018460328131397 -0.01026312352600861
0.24825327250539736 0.09967232551441672 -0.010297495057419004
0.2477037945924574 0.09916042683389416 -0.01033194178979785
0.24715474888030098 0.09864891189567122 -0.010366432403527748
0.24660613731327957 0.09813775769486861 -0.01040102432042056
0.24609614494384413 0.097552152871749 -0.01053022999306813
0.24562539340513478 0.09689257047829498 -0.010754119043364152
0.24511730197980838 0.0963085057923619 -0.010883554969940867
0.24461006290909743 0.0957251004970645 -0.011013127962975433
0.24418171044647072 0.09499399813922695 -0.011332049240757647
0.243715813836478 0.09433822964148013 -0.01155654950425583
0.24333006337203772 0.09353568320953858 -0.011970516875045023
0.24290676577860382 0.09280846842491301 -0.012290062929370515
0.24256487505018282 0.09193541523716918 -0.012799206068464075
0.24218541829461548 0.09113770361097732 -0.013213903984524766
0.24184835127732662 0.0902683318082551 -0.013723593376208654
0.24143280204578316 0.08954707433669613 -0.014044041678199226
0.2410189161546063 0.08882712209131187 -0.014364663048207216
0.24056579174230575 0.08818122672381985 -0.01459068064867064
0.24007276679818207 0.08760896433591704 -0.014721994439181929
0.23953923451409181 0.087109821094195 -0.014758578075878215
0.23896455808577655 0.08668333662687559 -0.01470033840802143
0.2383898487785937 0.08625689414575406 -0.014642132927464913
0.2378151131010185 0.0858304828605825 -0.014583953465711008
0.2372403548162968 0.08540409384888438 -0.014525793783069174
0.23666556224815205 0.08497773797079959 -0.014467663731322855
0.2360481314315402 0.08462295156330583 -0.014314569986811465
0.2354730671023704 0.08419648381888027 -0.014256463154486476
0.2348979660835815 0.08377003961212952 -0.014198381295138895
0.23432282458171583 0.08334362003289637 -0.014140326231340594
0.23370420695073135 0.08298812025805997 -0.013987242342143325
0.23308511567517587 0.08263234367991067 -0.013834117150447967
0.23246555870503832 0.08227627225918012 -0.013680973453257361
0.23180146059201426 0.08199034638625359 -0.013432666589102416
0.23109218816027977 0.08177409174450583 -0.013089165413790904
0.23038159352793963 0.08155692664990481 -0.012745534730133457
0.22962498016718036 0.08140880221408213 -0.012306621949690177
0.22886661679230358 0.08125945373447575 -0.01186753851020711
0.22815165117259814 0.0810391809405749 -0.011523577318464373
0.2274353564572733 0.08081799257677917 -0.011179485919585064
0.22671773849986113 0.08059586904796294 -0.010835286898101815
0.22604455996754666 0.0803036059814793 -0.010586322315825236
0.22357749962719684 0.08270331823309453 -0.0066195333612937834
0.22280189668589898 0.08254151148056398 -0.006178892543629022
0.22202455035600444 0.0823784338176934 -0.005738123513960913
0.22110561978972398 0.08241983012049676 -0.005011027279041902
0.2202304790360606 0.08239062091351122 -0.004379073241541798
0.21935271973294032 0.08235954699604221 -0.0037468627283632205
0.21847236476853069 0.08232657747574389 -0.003114442041745491
0.2549369967671663 0.11149470407619337 -0.003829340576835649
0.2548477076168537 0.10988335182482119 -0.005181611841699019
0.25483370524775356 0.10812217715414328 -0.006723210776202415
0.25454951621626243 0.1069836751820273 -0.007510866320788512
0.2543738303743784 0.10561705797200842 -0.008582045868635202
0.25395756833751315 0.10479221534193249 -0.008993117401035255
0.2534728520563124 0.10412236292544454 -0.009215644131783274
0.25298942061275037 0.10345356217017267 -0.00943832101953751
0.25247157816310084 0.1028621158953097 -0.009566722280039908
0.25191866614145925 0.10234759444024026 -0.009600779041410379
0.25140234291516467 0.10175742844428433 -0.009729385111664213
0.2508505432237175 0.10124383402285266 -0.009763611987378185
0.25029919161336756 0.10073062290515479 -0.00979791296624788
0.2497482771031983 0.10021780256227648 -0.009832295763501309
0.24919781220115161 0.09970535494107442 -0.009866746197585097
0.24864778094486106 0.0991932877208248 -0.00990127368589927
0.24809819180641257 0.09868159937875944 -0.00993587467300977
0.24758665049721756 0.09809534148796069 -0.010065168424018889
0.24703814489070447 0.09758455099708042 -0.01009993219279176
0.24656614805991725 0.09692483716345408 -0.010324143062929558
0.24609541726762083 0.09626613370376551 -0.010548486735632745
0.2456259639482693 0.09560840903566224 -0.010773012766395196
0.2451577721949672 0.0949516914223346 -0.010997671146453447
0.24476861742776734 0.09414789499408756 -0.01141205043227883
0.24434247049363206 0.09341959706629523 -0.011731855135800717
0.24395730506426677 0.09261888674340867 -0.012146674121485068
0.24353474025635435 0.09189332483587166 -0.01246692123767601
0.2431932885759857 0.09102228448763781 -0.012977062309355691
0.24281442610919762 0.09022639631248154 -0.013392601743006938
0.24243766478997514 0.08943209820793831 -0.01380840701187408
0.24202262967675214 0.08871235527179495 -0.014129512223117646
0.24156870758921503 0.08806666065694162 -0.014355897008158147
0.24107524027991045 0.08749458154259877 -0.014487455086897416
0.24054162368592405 0.08699560222758655 -0.014524158186665581
0.24000841258474825 0.08649696679977222 -0.014560926659327011
0.23943418546427508 0.08607083140064233 -0.014502741355697457
0.23881831696432984 0.08571672021224587 -0.01434953227615865
0.23824382987995457 0.08529049341717 -0.014291378008641664
0.23762728085647744 0.08493596700484286 -0.01413815072156871
0.23705252574502922 0.08450963892474102 -0.014080024465955576
0.23643528237178105 0.08415469874284486 -0.013926784191182429
0.23586025568565955 0.08372825893470066 -0.013868681173876796
0.23528519017033284 0.0833018449814726 -0.013810605119735864
0.2347100901946901 0.082875448410154 -0.013752549850449214
0.2340916541706604 0.08251980224482176 -0.01359932546057141
0.23342923673489444 0.08223445979582304 -0.013350813733602473
0.2328096508175574 0.08187808572466641 -0.013197508196647167
0.23210172489359876 0.08166196785565323 -0.012853620499451213
0.2313925010979691 0.08144490580558054 -0.012509647535138113
0.23063759528189798 0.08129690100841704 -0.012070223709834071
0.22988096452605092 0.08114763899245726 -0.01163067354226388
0.2291225932003479 0.08099713990750608 -0.011190977871125496
0.22840746061743217 0.08077591583018494 -0.010846496634633662
0.22769100140188653 0.08055376578691663 -0.010501914053000994
0.22701864202735084 0.08026148192523726 -0.010252677158537171
0.2246117687906387 0.08259157788512674 -0.006376338265947856
0.22379208420953942 0.08249873419437216 -0.005839755343075348
0.22297022336825315 0.08240433009291419 -0.005302982760618247
0.22219243053492657 0.0822398164270667 -0.004861508656551439
0.22131995051633105 0.08221085188670176 -0.0042288465636433625
0.2204448758640927 0.08218000082498199 -0.003595943582038408
0.21961407466987784 0.08207918435205043 -0.0030583907200293914
0.2553076396935977 0.1110797945307478 -0.0033280142446018846
0.2552160297732297 0.10947094187962168 -0.0046824008700550035
0.2551994381392575 0.10771257860969123 -0.006226412308122875
0.25498285787268005 0.10642155520348735 -0.00720431237434227
0.2548751857354957 0.1049035610915529 -0.008466218968028627
0.25442392634425604 0.10415675074668888 -0.00878358445148858
0.25393922430099314 0.10348778805421428 -0.009006573973141418
0.253420450390604 0.10289619722318531 -0.009135189816638245
0.2529025549337014 0.1023053012807507 -0.009263918966291584
0.25234973538282096 0.10179115695500703 -0.009298159454563804
0.25179735988681146 0.10127742859955195 -0.009332458267736765
0.2512454489698558 0.10076404451657749 -0.009366839398182392
