ply
format ascii 1.0
comment pointcloud saved from Clarks Foot Scan v1.0
element vertex 783
property float x
property float y
property float z
end_header
0.23776708474504915 0.12584815992511544 -0.00982276464383297
0.23882840386144155 0.12607422861190587 -0.009548188718987938
0.2409582280198086 0.12500226134029707 -0.008194999562446625
0.2436670016207368 0.12324455146004148 -0.006266752355010119
0.246387564222184 0.12149531152508664 -0.004338872353834511
0.24754132678756025 0.12164964979673831 -0.00399323821330505
0.11604765542721758 0.10411730815376202 -0.04431678172302492
0.11672353351939725 0.10464036311458191 -0.04431311546583788
0.117355859497849 0.10527031644955759 -0.0443818502126333
0.11794398747553488 0.10600668832663618 -0.04452297740752159
0.11853103448879491 0.10674193891703204 -0.04466424463568974
0.11907301633308139 0.10758300105348151 -0.04487790780080028
0.11961347261032497 0.10842267841256875 -0.045091702261597644
0.1201524412535263 0.10926093236849554 -0.04530563136863325
0.12073454415272146 0.1099915710531163 -0.04544743627323722
0.12136043420310512 0.11061502748835078 -0.04551711956017071
0.12198567371980491 0.11123780837140934 -0.04558691008601176
0.12261030063582144 0.11185987507649375 -0.0456568112013119
0.12327979613413732 0.11237561494819193 -0.04565461108832844
0.12394909561187008 0.11289101692730696 -0.045652524235063774
0.12457229342056574 0.11351136404636541 -0.04572284026062473
0.12519487366575383 0.11413101573735912 -0.04579329069792104
0.12581685122074232 0.11475002741929191 -0.04586384900789453
0.12643822521842668 0.11536832449871481 -0.04593455973919355
0.12710577531795375 0.11588134719839949 -0.045933100290358214
0.12777316834750957 0.11639401657250148 -0.04593178135329057
0.12844039030089055 0.11690635179546593 -0.04593058491840046
0.12910743417499504 0.11741836245451537 -0.04592950198089277
0.12977433585243625 0.11793007520698606 -0.0459285330160947
0.13044108045990616 0.11844143463387408 -0.04592770456306433
0.13110766595207235 0.11895246879540328 -0.045926998770653926
0.1318223881062709 0.11935969987502232 -0.04585413985708883
0.132488905523456 0.11987028413729978 -0.04585367378763475
0.13320398319093035 0.12027739479292482 -0.04578105129615731
0.13391936223663725 0.12068452228567317 -0.04570855756533221
0.13463503069970567 0.1210916577297661 -0.045636192436717044
0.13540033879884178 0.12139620304343057 -0.04549167342431759
0.13611681524295433 0.12180358378334616 -0.045419532887453457
0.13688338292885338 0.12210862829629021 -0.04527525620919323
0.13765068549678056 0.12241405606761802 -0.04513108729801121
0.13846892545528672 0.12261785781551249 -0.044914781694045364
0.13938919727503224 0.12261868639630163 -0.04455403224089699
0.14031152872611302 0.1226208008007808 -0.04419341986351019
0.14128673113822166 0.12252278479843298 -0.043760660758712794
0.14226440173599775 0.1224264545225005 -0.04332802346956777
0.14329581542077885 0.12223061930879164 -0.042823227117809864
0.14438164302401124 0.1219357627308047 -0.04224628950178744
0.14536734211163688 0.1218449679461705 -0.04181401701264098
0.14640745212749606 0.12165514957581364 -0.041309603219619406
0.14745046288793284 0.121467353071464 -0.04080530806021329
0.14849637344806182 0.12128154815145314 -0.04030114934595985
0.14954518475276835 0.12109776509744957 -0.03979710926532187
0.15075527757022267 0.12061586865160662 -0.03907641160040787
0.1519165696574974 0.12023681581634971 -0.03842810173270908
0.15302841213228174 0.11996016176109192 -0.03785218604264887
0.1540901541497685 0.1197854081807791 -0.037348664820690325
0.15510115485846998 0.11971204940457914 -0.03691754740170222
0.1561146666385539 0.11964039342490834 -0.03648656127848879
0.15718474623876738 0.11947134580280439 -0.035983444599105685
0.15825774853774904 0.11930432156670856 -0.035480455756186136
0.15933365952929546 0.11913933989106601 -0.03497757674013996
0.16041251422891523 0.11897635283976404 -0.03447485257494268
0.16149431161394218 0.11881537444291462 -0.03397227433502037
0.16252388650972238 0.11875470526516874 -0.03354207136524756
0.16355598145259326 0.11869570832537552 -0.0331119848341577
0.16464614923496157 0.11854050463440696 -0.032609784835416294
0.1657392696960565 0.11838730223211302 -0.03210773980635562
0.16683532379412452 0.11823614613171796 -0.031605813846627
0.1679343325384708 0.1180870075715541 -0.031104033970615758
0.16897986101233703 0.11803718466038737 -0.030674648351376427
0.17002791149579044 0.1179890874616405 -0.030245385260780272
0.17096478602055448 0.11813660822910527 -0.029960783547022307
0.1719033272798982 0.1182852264646786 -0.02967625132024121
0.17284356044146254 0.1184348874202859 -0.029391907986076188
0.17384295882195 0.11848914551078737 -0.029035432854667864
0.17484448553100052 0.1185447848299872 -0.028679068972953886
0.17590603973708335 0.11850563994116992 -0.028250635340458075
0.17697014388737958 0.11846822672766272 -0.02782233351867472
0.17803678397568568 0.11843256436391075 -0.02739414549801361
0.1791059910824072 0.11839857241068807 -0.026966134074376924
0.18017773609469018 0.11836634755877717 -0.026538227565899186
0.18113407006009374 0.11852652760281884 -0.026254929181263598
0.18209210183037255 0.1186877991215643 -0.025971793031354135
0.18299244019617195 0.1189451747390487 -0.025761007088068638
0.18389403074661836 0.1192033551477586 -0.025550350740418726
0.18479693337395792 0.11946226601898624 -0.02533982156588041
0.18570110966769243 0.11972196806060609 -0.025129440095594396
0.18660659402543617 0.1199824123734109 -0.024919176833235496
0.18757383407052053 0.12014944509678988 -0.02463681324079936
0.18854284330115478 0.12031748871110931 -0.024354618524776356
0.18951353420734757 0.12048671534658195 -0.02407252344563035
0.19048598824087387 0.12065699274188607 -0.023790570426565155
0.19146016400101767 0.12082837938345159 -0.02350877995911088
0.19243608833206788 0.12100086513023989 -0.023227095710804724
0.19341375138615685 0.12117444317028914 -0.02294559206331029
0.19439314955011733 0.12134914754197068 -0.022664209432639804
0.19531208780793935 0.12161793034699969 -0.022455122537445693
0.19623238259620424 0.12188745470651263 -0.022246214028325467
0.19715397292727382 0.12215781606819914 -0.022037435689194557
0.19807691271295863 0.12242893566046198 -0.021828785018307734
0.19900116802808715 0.12270087752334269 -0.02162028260622162
0.19999003422619216 0.12288143968982035 -0.02133969664610283
0.2009806595286367 0.12306313887061804 -0.021059273732727507
0.20197304189514337 0.12324596590304887 -0.02077898103902423
0.2030311308621076 0.12333819767224796 -0.02042663713601306
0.20402728711102253 0.12352341422101848 -0.020146643970655853
0.20502523509167064 0.12370973235965238 -0.01986677542024029
0.20602494312154368 0.12389721779427476 -0.019587052105030922
0.20702643941543447 0.12408582467939228 -0.019307477246844784
0.20796476430367555 0.12436642166479744 -0.019100206765774397
0.20896962753524634 0.12455713053524992 -0.018820917133221482
0.20991090474356383 0.12483950669506638 -0.01861393529748473
0.21091914024436126 0.12503233630153576 -0.018334922049163593
0.2119950360791505 0.12513602208119723 -0.01798388347211044
0.21307315664603116 0.12524117600203533 -0.017633023021871586
0.21421975426596118 0.12525788922599101 -0.017210127389638397
0.21530255606989646 0.12536613632025873 -0.01685956066317157
0.2163876070206603 0.12547583960974074 -0.01650911569887259
0.21740800208376765 0.12567646025568313 -0.01623101213522249
0.218430238445591 0.1258782045251431 -0.015953042755141256
0.2193869409613114 0.12617027307165574 -0.01574736749752481
0.2204125983988709 0.12637418912553766 -0.015469666236175017
0.22150785551112107 0.12649043218030864 -0.015120022024072866
0.22267333296815822 0.12651951484671753 -0.014698374634913969
0.2238415132234075 0.12655038358486215 -0.014276896729390531
0.22501239245087357 0.12658305034224998 -0.013855579344793645
0.22625459315515628 0.12652933037708197 -0.013362300105616842
0.2274999421014331 0.12647771261575474 -0.012869205162774844
0.22867937872864347 0.12651608594588748 -0.012448393264905766
0.23000003990847184 0.12638086873282045 -0.011883496276274053
0.23118535374029392 0.12642314977617075 -0.011463038504968048
0.23244305423623174 0.12637987979841614 -0.010970606253247195
0.2336340305480944 0.12642593861495421 -0.010550481940052425
0.23475761794947625 0.12656088391035314 -0.010202588311782057
0.23588350800505786 0.12669732565586383 -0.009854891666592869
0.23701169513412051 0.1268352816383011 -0.009507341306460304
0.23807146133291057 0.1270612982485666 -0.00923204360847485
0.2403397173107798 0.12581906399817339 -0.007731479476767333
0.24304431396122939 0.12406574235821233 -0.005798700252824529
0.245760711578124 0.12232086232642014 -0.0038662734176614366
0.2469132158408316 0.1224756412564959 -0.0035197937902350374
0.11574066384015545 0.10447558759939674 -0.04364561954851509
0.1164598650502487 0.10489146339227723 -0.04356965335016025
0.1170928915225216 0.10552145620459519 -0.0436386497610238
0.11772524062187655 0.1061507463828652 -0.043707794767334246
0.11831328847441415 0.10688614176365979 -0.04384947344649606
0.11885641035796345 0.10772704512969772 -0.044063757731227254
0.11944209687688938 0.10846011660491195 -0.044205710987424984
0.12002671831725369 0.10919218262815672 -0.04434781661526549
0.12061025674280483 0.10992319264785327 -0.0444900594011616
0.12123745815348384 0.11054725355150619 -0.044559982860000846
0.12186402902217304 0.11117058694851689 -0.04463001667063554
0.12248997138409475 0.11179323922448275 -0.04470020863606064
0.12316065918997642 0.11230974654738257 -0.04469809561346608
0.12383115695571052 0.11282592042058859 -0.044696095929811525
0.12445566612470156 0.11344687200806552 -0.044766652127278234
0.12507957173638845 0.11406710899303263 -0.044837360746070504
0.12570286269700476 0.11468669708316004 -0.04490817707909758
0.1262790976309156 0.11541022552002389 -0.045051561889372815
0.12694763276809712 0.11592383210955809 -0.04505020460933218
0.12761598778066968 0.11643714219540108 -0.04504894297552611
0.1282841877686034 0.11695007089543763 -0.045047839704635606
0.12895220763192816 0.11746270309178292 -0.0450468320799797
0.12962008238615275 0.11797499084832441 -0.04504596512553394
0.1302877970024074 0.11848696736961895 -0.0450452119061342
0.13095536548689563 0.11899861348122154 -0.04504459043137066
0.13162277383341392 0.11950994835757722 -0.04504408269165314
0.1322900340028334 0.12002098088446478 -0.045043688845424035
0.13300574835334983 0.12042869764314995 -0.04497099457967105
0.13372174905322914 0.12083646444351548 -0.04489840213940627
0.13443805113134105 0.12124424808100431 -0.044825938459793796
0.135154628620611 0.12165205884428282 -0.04475358537280105
0.13587151740365216 0.12205992339068722 -0.04468134335375523
0.1366383474458514 0.12236564373147901 -0.0445368177660401
0.1374059373195421 0.12267171384918946 -0.04439239421193833
0.13822435545167588 0.12287632064934167 -0.04417564821490691
0.139144528383923 0.12287833290386496 -0.04381413992953384
0.1400667459135807 0.12288170140954585 -0.04345275676068186
0.14104172133702725 0.12278506971116165 -0.04301905888620003
0.14201916990896563 0.12269010498928357 -0.04258545900509428
0.14310139135057565 0.1223948546640472 -0.04200713396712874
0.1441355730666704 0.1222027322955534 -0.04150137613571153
0.14517264254380552 0.1220126369374 -0.040995727853893466
0.14621259883709553 0.12182453830791856 -0.040490206933211786
0.14725547184871818 0.12163845862155592 -0.039984813769772476
0.14824901233808352 0.12155456125794206 -0.03955196177552833
0.14929747162096285 0.12137232104779588 -0.039046829764467855
0.15045416031474718 0.12099241462500254 -0.038396949936255476
0.15156172981440197 0.12071483421741891 -0.03781962301516478
0.15267264859129953 0.12043960889254596 -0.0372424206692796
0.15373360201516495 0.12026607382516591 -0.036737801733750935
0.15474394412117953 0.1201937934950063 -0.036305730915578066
0.15581053071490059 0.12002410316528922 -0.0358013915777351
0.15688001994297002 0.11985649526491648 -0.035297135250433126
0.15795243092492217 0.11969088046888338 -0.03479302457113195
0.15897340040893104 0.11962584450655478 -0.034361486660124785
0.1600514674598148 0.11946410624985415 -0.03385764696982016
0.16113245122903125 0.11930438693627232 -0.03335393503675793
0.16216135060348413 0.11924476884578672 -0.03292278735571069
0.16313753961004884 0.11928476450365866 -0.03256417174656556
0.16422670350311647 0.1191306193816053 -0.03206087118229084
0.1653187940300554 0.11897853014867327 -0.0315576806825531
0.16641384423882277 0.11882843261719334 -0.031054654157291167
0.16745574451263495 0.11877765950461222 -0.03062416885709668
0.16850016081559888 0.11872860766156157 -0.03019380600632418
0.1695471081765842 0.11868124388348439 -0.029763592540137745
0.1705398561139586 0.1187323804854396 -0.02940593313280926
0.17147776968394413 0.11888152332835439 -0.029120795485394035
0.17241735312417877 0.11903175168308278 -0.028835810790635658
0.1734159937465926 0.1190867187595987 -0.02847855918709677
0.17441675270425006 0.11914307443059075 -0.028121409788846502
0.17547740602222595 0.11910487236257439 -0.027691992811596178
0.17654060133642813 0.11906838127542219 -0.027262716451800423
0.17760635060772761 0.11903361005491281 -0.026833580867901663
0.17861621302770964 0.11909605603796264 -0.026476994814019633
0.17968685090464048 0.1190645764153887 -0.026048128964767103
0.1806423268561368 0.11922515432731118 -0.02576419537237007
0.18159949164185507 0.11938681704960352 -0.025480423895867382
0.18249908805625897 0.11964442533074093 -0.02526915578672667
0.18339996765793465 0.11990280227565842 -0.02505805333201261
0.1843021223534433 0.12016194136764974 -0.024847041912397894
0.18520558015013677 0.12042184148073526 -0.024636172522986555
0.186110310590559 0.12068254679432494 -0.024425441912253626
0.18707670458766218 0.12084994904845292 -0.024142428294574886
0.1880448073278455 0.12101846569317543 -0.02385956814449075
0.18901466075699358 0.12118804629402707 -0.023576873777737234
0.18998623828508254 0.12135873739949016 -0.023294267481904468
0.19095953651712266 0.12153055178132649 -0.023011814812108733
0.1919346008667141 0.12170341914443905 -0.0227295042420044
0.19291137537671377 0.1218774463206489 -0.022447320422188916
0.1938280613898249 0.12214547289510419 -0.02223765114645318
0.19474604546351582 0.12241432355234344 -0.022028120986085947
0.19566536899850245 0.12268393980593689 -0.021818709449557078
0.19658600058738834 0.12295437277653648 -0.021609446072802463
0.197507965106911 0.12322559607154704 -0.021400283409322512
0.19843127419095047 0.12349758925817339 -0.021191313949397605
0.19941905008304767 0.12367840630151472 -0.020910071880353376
0.2003452248903984 0.12395218827874416 -0.020701345358503764
0.201336320349134 0.12413508690513969 -0.020420378975554515
0.20239294869623253 0.12422763146732269 -0.020067210793623058
0.20338781579471304 0.12441291794397441 -0.019786543909311893
0.20432023006882588 0.12469055138361201 -0.01957837237740573
0.20531842814459234 0.12487795750004288 -0.01929796350628943
0.20631840204600788 0.12506649826326638 -0.019017726815446112
0.2073201546905643 0.1252561829835971 -0.018737620631451735
0.2083237162606062 0.1254469820670982 -0.018457639290159922
0.20926378822605007 0.1257293135158588 -0.0182501663034087
0.2102707264519797 0.12592222180439017 -0.017970470316484577
0.21134515568646767 0.12602621593414615 -0.017618607381289897
0.2124218150883141 0.12613167459600377 -0.017266889844864686
0.21356685444972584 0.1261488198408524 -0.01684297827185277
0.2146482074128328 0.12625735125213194 -0.01649157244650884
0.21573180483505577 0.1263673430230619 -0.016140321121280277
0.2167508872154273 0.12656806048420916 -0.015861516790869445
0.21777176057508874 0.12676996821941333 -0.015582858105386954
0.21872727585651663 0.12706196055989416 -0.01537664415927592
0.21975159741660028 0.12726600107113878 -0.015098289599945913
0.22084538140816623 0.12738255477488403 -0.014747779231257196
0.2219414406123008 0.12750056924833092 -0.014397399882049078
0.2230397553851476 0.12762007477160275 -0.014047199068139615
0.22420861231506278 0.12765289561981352 -0.013624856747702085
0.22538017064674676 0.12768751629219138 -0.013202674980374862
0.22662313343954804 0.12763609289862032 -0.012708363129226352
0.2278003317259738 0.12767445982019715 -0.012286523433650776
0.22911848620448816 0.12753959884694716 -0.011720256435390486
0.23037088878638706 0.1274945227668312 -0.011226470671768074
0.2316264371911705 0.1274515766730993 -0.010732851348381367
0.23288515065792298 0.12741074527883456 -0.010239416544139068
0.23400704093712366 0.12754584245856004 -0.009890686592039732
0.23520141310072357 0.12759572557409332 -0.009469823004398081
0.23632816129910933 0.12773393600916727 -0.0091214187006749
0.23738655323569868 0.12796010772004934 -0.008845431548129556
0.23979292960100995 0.1265484843658573 -0.007196819913780628
0.24242254607026326 0.12488575303440197 -0.005331783249955202
0.2451347846830409 0.12314523734866178 -0.0033948096600258104
0.24628599964045506 0.12330049306460716 -0.0030474484869114082
0.11547599712798794 0.10472680408995072 -0.042901627311822316
0.11619563767180553 0.10514310214763123 -0.04282557174896873
0.11687239086360983 0.10566625999882323 -0.04282224682898436
0.11750564976697471 0.10629578237847437 -0.04289167124802848
0.11809471553804697 0.1070312240619764 -0.043033791188572396
0.1186827162406676 0.10776558584768764 -0.04317603354891192
0.11926962196254899 0.10849891996698252 -0.04331842788478826
0.11985547559446107 0.10923120626706417 -0.043460968700400116
0.12048462796091446 0.10985652427542086 -0.04353103385936902
0.12111315372048113 0.11048114728024849 -0.04360119159820677
0.12174104105774171 0.11110505221802874 -0.043671525184540344
0.12236830980882847 0.11172827575785604 -0.04374198425703532
0.12304018787694353 0.11224557859218132 -0.04373994047368185
0.12371187795024342 0.11276251991658898 -0.0437380278804162
0.12433771248573332 0.11338405679803931 -0.043808842259378894
0.1249629244999463 0.1140048797784236 -0.04387979989642962
0.12558754287239382 0.11462502510230055 -0.0439508922621005
0.1261652391492285 0.11534896598622407 -0.044094664671554706
0.12678842094962334 0.11596762995906967 -0.044165987544100976
0.1274577550194148 0.11648151949187285 -0.04416482799986843
0.1281269239934671 0.11699507931642783 -0.04416379103703463
0.12879592787178007 0.1175083094327346 -0.04416287665559954
0.12946476665435386 0.11802120984079317 -0.04416208485556314
0.130133458282495 0.11853379386927176 -0.04416141587458908
0.13075416840577386 0.11914934969583851 -0.044233472439817845
0.13142233146539767 0.11966114172258308 -0.04423303708176771
0.13209035335102431 0.12017262181263699 -0.04423272462200109
0.1327582291048846 0.12068377149299897 -0.0442325439068707
0.13347465119212665 0.12109198445240699 -0.04415987684036718
0.13419135860606546 0.12150026148360726 -0.04408730267377792
0.13490835149720765 0.12190855118594945 -0.044014889857248746
0.13562563570053704 0.12231687218006276 -0.04394255504393155
0.13639278193306625 0.1226232338888853 -0.0437977513079052
0.13716065210941875 0.12292995594020095 -0.043653064106088574
0.13797920551935516 0.12313542516831844 -0.04343589818771637
0.1388993024682349 0.12313861567533468 -0.04307360748550598
0.13982142606816356 0.12314318632775106 -0.04271145663807663
0.14079617348028184 0.1230479529634424 -0.042276811068336445
0.1417733851429644 0.12295437282243599 -0.04184230508617523
0.14285514645327757 0.12266081401682027 -0.04126271129321529
0.14394021510000388 0.12236962350546993 -0.0406832147838013
0.14497714981854265 0.12218124718674822 -0.04017646853756063
0.14601698134655583 0.1219948602309206 -0.03966985869686204
0.14700778573837325 0.12191069784920844 -0.039235942727119055
0.14800109529891836 0.12182818950935559 -0.03880218471104063
0.14904919846930575 0.12164754826351454 -0.03829592506726204
0.15015274522723804 0.12136919782329048 -0.0377172080539685
0.15125961631800477 0.1210931987243315 -0.037138606373421756
0.1523168633294692 0.1209189215686578 -0.03663272630439557
0.15337702414682935 0.12074661682287774 -0.03612700069011229
0.15444010160474125 0.12057637533199694 -0.03562137609596028
0.15550608885566491 0.12040811805967705 -0.035115896991366635
0.15657502075954727 0.12024188569336625 -0.03461055492608467
0.15764684341468777 0.1200776825588406 -0.034105322450012465
0.15866736463391967 0.12001386651356866 -0.033672842838136485
0.15969037796056118 0.11995175396626961 -0.03324048535879762
0.16077056511038829 0.11979327678295504 -0.03273565778179627
0.16179880092438498 0.1197347186655085 -0.03230356554791697
0.16277443345729692 0.11977563965076815 -0.03194417328493779
0.16380748210386958 0.11972029440234105 -0.03151232589394226
0.1648985647286239 0.11956927554699143 -0.031008025863486693
0.16599259200633693 0.11942028159765089 -0.030503862872342802
0.16703360343069412 0.11937041587986907 -0.030072421122947363
0.16807714292285492 0.11932223600561598 -0.02964112871852742
0.16912319742150123 0.1192757914310052 -0.029209949837955496
0.1701151835879181 0.11932764882764207 -0.028851504993311933
0.17105245042679168 0.11947736129112263 -0.028565726024913946
0.17199140114211786 0.1196281400919717 -0.02828011801876304
0.17298927598069025 0.11968383977183644 -0.027922072012724564
0.1739892691545062 0.11974092804617742 -0.02756412821197468
0.17504901961682356 0.11970365254740534 -0.02713373677593317
0.1761113341073386 0.1196680452377179 -0.026703521897305488
0.17717618052297956 0.11963420058645291 -0.026273411854615514
0.17818527117868455 0.11969737472996222 -0.025916031319012683
0.17919649811093968 0.11976195079661583 -0.02555875322636203
0.1801511021150511 0.1199229386619945 -0.025274208129648007
0.18110741384463142 0.12008501772516894 -0.02498979259903117
0.18200628231384341 0.12034283949551428 -0.02477806033362548
0.1829064179238462 0.1206014399413981 -0.024566442885984835
0.1838078412064474 0.12086081238322899 -0.024354991152186728
0.1847105640548472 0.12112093557274506 -0.024143648601715306
0.18561455104876506 0.1213818724392654 -0.023932435805321894
0.18658009104484496 0.12154966075260709 -0.023648795945066192
0.18754733577112104 0.12171857526521046 -0.02336530058722061
0.18851632261542545 0.12188856929931302 -0.023081920275070555
0.18948703118634724 0.12205967257967687 -0.02279870251453142
0.1904594573982767 0.12223190400383915 -0.022515596627384005
0.1914336467375396 0.12240518618783297 -0.022232632800317426
0.1924095532403125 0.12257961859770156 -0.02194980472833477
0.1933254973020282 0.12284787783580986 -0.02173965328674385
0.1942427409194325 0.12311696226742452 -0.021529640980326697
0.19516132100791483 0.12338681007394864 -0.021319747258137373
0.19608122158866514 0.12365746140118133 -0.021109977972472493
0.19700242621043074 0.12392894125408743 -0.020900347881397302
0.19792499728323287 0.12420116238456941 -0.020690863507767054
0.19884887688237696 0.12447421537289183 -0.02048151838814241
0.19977410538591278 0.12474805576273679 -0.020272283105419342
0.20076410109048964 0.12493122468373824 -0.019990684376404944
0.20175586527483108 0.1251155222901872 -0.019709183218238946
0.20274941807102798 0.12530091967278834 -0.01942788114580213
0.20368065599188873 0.12557847020010776 -0.01921917998156647
0.20467753126716093 0.12576599569898822 -0.01893812689772406
0.20567619405889648 0.12595464209300267 -0.018657222261002304
0.206676654287689 0.12614440910524294 -0.018376433402772063
0.20767889081457325 0.1263353259051102 -0.018095807819046295
0.20861778642676504 0.12661757444155253 -0.017887805199965523
0.20962338821977416 0.12681062156465922 -0.0176074469956764
0.21069638273380004 0.12691488806469203 -0.01725472126063582
0.21177158834749116 0.12702064215802722 -0.016902155647770645
0.21291504355098095 0.12703825984647588 -0.016477266654905676
0.214061162316517 0.12705766403766577 -0.016052528801871524
0.2151435048105086 0.1271681285536122 -0.01570041421039242
0.21616147886056364 0.12736911708100185 -0.015420935708239158
0.21718123669991835 0.12757130533083072 -0.015141593843743473
0.2181357903657502 0.12786336714555507 -0.014934894821945432
0.21909171301638947 0.12815630573295472 -0.01472833585502975
0.22018404407629621 0.12827314785751526 -0.014376944621202536
0.22121091656089137 0.1284797785839107 -0.0140982049880089
0.22230754487970505 0.1285994362699623 -0.01374713519154408
0.22340647521393947 0.128720530268097 -0.013396223505690752
0.2245076532780068 0.12884313907223144 -0.013045472427242688
0.22574823953687478 0.12879190240295818 -0.012549952707242129
0.22692319621718648 0.1288302752800075 -0.012127076258678204
0.22823886575124647 0.12869574234026804 -0.011559466275077313
0.22948888442233312 0.12865086229399186 -0.011064463632856403
0.23088091360301405 0.12843402567476842 -0.010424753557318867
0.23213768252363526 0.12839368714040533 -0.009930125518676114
0.23332773130331935 0.12844222191850224 -0.009508081744952657
0.23452050503273703 0.1284925740146431 -0.009086198836272874
0.23564574040199615 0.12863113240550672 -0.008736925001892937
0.23677329534915043 0.12877117738235155 -0.008387824486760231
0.23924676855217453 0.12727711314479473 -0.00666292617428943
0.2418725858603516 0.12561871769112531 -0.004793525762979034
0.24450975654719392 0.12396846091058994 -0.0029244539873211073
0.1152532559684641 0.10487151827484836 -0.04208420831355597
0.11597353523560121 0.10528843159827572 -0.042008113803498226
0.11665106517248235 0.10581200380807709 -0.042004897205140446
0.11732837414437204 0.10633523438384973 -0.042001784624042804
0.11791869705645537 0.10707086286272355 -0.0421443340188932
0.11850792003003009 0.10780544520217972 -0.042287044235633064
0.11909607486209962 0.10853902695709156 -0.04242986507137045
0.1196831596679482 0.10927151034121135 -0.04257281717325617
0.12031341612478562 0.10989724925663447 -0.042643137582536655
0.12094304407991059 0.11052226982810204 -0.042713601170683985
0.12161672470487393 0.11104122237603803 -0.042711394112744466
0.12224530481625608 0.11166505038428381 -0.042782093357145196
0.12291838919814042 0.11218310149536564 -0.04278015467377083
0.12359126559857057 0.1127008058280855 -0.042778329091672895
0.12421841353968822 0.11332291911773051 -0.04284940149368918
0.12484495587816936 0.1139443458650895 -0.04292060846588319
0.12547088458824607 0.11456510968749684 -0.04299193207788593
0.12605001741410288 0.1152894078763842 -0.0431361512942062
0.12662811301824345 0.1160127508879728 -0.04328050542712744
0.12729842905769073 0.11652726640096128 -0.043279421274967894
0.12796856906319393 0.11704142928981087 -0.043278468471338566
0.12863854995339347 0.11755526691330165 -0.04327763832832918
0.12926109898281885 0.11817223324013276 -0.043349692516965854
0.12993054036629614 0.11868525594599888 -0.04334910476401191
0.13055213432651036 0.11930105426261312 -0.04342142257394174
0.13122106406011064 0.11981331232552539 -0.043421059756001384
0.13188984868461073 0.12032522594863376 -0.04342083760827117
0.13251013299570813 0.12093944493765985 -0.04349350346274003
0.13322696639921267 0.12134815573366864 -0.043420725988480874
0.13394408922007867 0.12175687448102201 -0.043348077116431655
0.13466150539340932 0.12216563368283317 -0.04327553907466575
0.13537921696453709 0.1225744052788783 -0.04320312971433096
0.1361466354739601 0.12288144253864053 -0.043058044400220735
0.1369147799674838 0.12318884930358259 -0.04291310844739163
0.1377335035252799 0.12339514720129224 -0.042695484205584805
0.13865350260427245 0.12339954457484137 -0.042332458572647225
0.13957552133626722 0.1234052944581025 -0.04196954881377202
0.14055006773185297 0.12331139788618062 -0.04153396766645645
0.1415777487173458 0.12311842456994926 -0.04102572638638838
0.14265923221175503 0.12282681154968184 -0.04044486946941658
0.14374404106671995 0.122537498617657 -0.03986412183484195
0.14478083001067665 0.12235086273425666 -0.03935625965419906
0.14582051875432556 0.12216621843519515 -0.03884853391870888
0.14681132844958145 0.12208358334846386 -0.03841370008044545
0.14780462427686641 0.12200261009390556 -0.03797897331957445
0.14880037734655888 0.12192333687278262 -0.03754439211741087
0.14985102727214505 0.12174624408524964 -0.037037168062788534
0.15095719200098168 0.12147184282337992 -0.03645731540545136
0.15201386870472183 0.12129894634610128 -0.035950340514428886
0.15307345811391065 0.1211280806206087 -0.03544348441546427
0.15413596227388054 0.12095921758667838 -0.03493676495970535
0.15520137717174748 0.12079236905297741 -0.03443017318196759
0.15626970178484534 0.12062754904961781 -0.03392370015667709
0.1573409701060166 0.1204647236705988 -0.03341738198223551
0.15836104597796352 0.12040213685269802 -0.032983918996066564
0.15938360804961027 0.12034124200101093 -0.03255061977624829
0.16040866521888436 0.1202820528687415 -0.03211744272857775
0.1614362254337729 0.12022459015033565 -0.03168437904631288
0.16241132455272478 0.12026634241818102 -0.031324240019109245
0.16344369263736497 0.12021211131870396 -0.030891445002004414
0.1644785727433279 0.12015957607451394 -0.030458748493213478
0.16557158810597233 0.12001166431142302 -0.029953467006167245
0.1666117146937584 0.11996269417977318 -0.029521077772755366
0.16765435833336245 0.1199154312875419 -0.029088819914339314
0.16869951996966975 0.11986990591639762 -0.028656675619381927
0.1696907443651291 0.11992248410771611 -0.02829744533742326
0.17062739146263145 0.12007274187298417 -0.02801105214164909
0.17162260039529004 0.12012795481605382 -0.027652070706361526
0.1726199247457002 0.12018454704328507 -0.027293233149786655
0.17361934145922442 0.12024257537656946 -0.0269344946063913
0.17462090255284757 0.12030193770388325 -0.026575903173428284
0.17568230214905217 0.12026729238944184 -0.02614468694045588
0.1767462617605705 0.12023432707275222 -0.025713638299712765
0.17775458261955002 0.12029824562827762 -0.025355454396425836
0.17876503676486188 0.12036356388550262 -0.024997372896480463
0.1797190010409631 0.12052511178422448 -0.024712195483578808
0.18061585742777103 0.1207823853212398 -0.02449986619494232
0.1815139829956472 0.12104044669648029 -0.02428768455114222
0.18241340364399528 0.12129925548723886 -0.024075612031252913
0.18331407694943308 0.12155888421005728 -0.023863660201230597
0.18421606233176407 0.1218192433953934 -0.023651835544319877
0.1851193198853811 0.12208039264039938 -0.023440158571856162
0.18608399785466978 0.12224859063028914 -0.02315587453865453
0.18705038307192973 0.12241790190005103 -0.022871743953242207
0.18801850639433398 0.12258830449997937 -0.0225877194483409
0.18898834695802902 0.12275981301400196 -0.022303857435634594
0.18995993310241283 0.12293241841180264 -0.022020101602465786
0.19093323546542118 0.12310614375380957 -0.02173649933591812
0.19190827797385124 0.12328096958866963 -0.021453035976952778
0.19282346655041072 0.12354949580571034 -0.021242375454147838
0.19373999568365802 0.12381876650012347 -0.021031884193789874
0.194657816346826 0.12408888600537737 -0.020821514138236713
0.195576973481072 0.12435976888554073 -0.020611262666911323
0.19649744165943495 0.12463147070415498 -0.02040115939497078
0.19741925976485597 0.1249039458941798 -0.020191174885505703
0.19834238639661883 0.12517725294204501 -0.01998132963004623
0.19926687444386815 0.12545132710626528 -0.01977161220127327
0.20019267550278597 0.12572623646049302 -0.019562034085921776
0.20118336338732312 0.1259107697693606 -0.019279894828420574
0.2021758001077686 0.12609646204379904 -0.018997900657585776
0.2031060900273196 0.1263740773696148 -0.018788723510034744
0.20410186472815273 0.12656187969660987 -0.018506996357189942
0.2050994474095859 0.12675076610510683 -0.01822541185858495
0.20609878612736 0.12694083161825948 -0.01794396363000167
0.20703514180593086 0.12722218414816455 -0.017735330259308013
0.2080378511991572 0.12741435442345805 -0.017454167305871182
0.20904238651429013 0.12760762210892163 -0.017173147244337772
0.210048687957749 0.12780207639641666 -0.016892263586511858
0.21112245528459717 0.12790810785750661 -0.016538867926602308
0.21226431850678296 0.12792621411028654 -0.016112950786151825
0.21340887574847123 0.1279460626863978 -0.015687188037057154
0.21448977220496368 0.12805681360196042 -0.015334234383835799
0.21550640076322175 0.12825794902390464 -0.015054084632290188
0.2165248626359289 0.1284602169276775 -0.014774060046521154
0.21747819651537897 0.12875225280662533 -0.014566851857000795
0.21843293503874883 0.129045117496213 -0.014359754242748435
0.21952380687523326 0.1291622586613262 -0.014007547660526087
0.22048176962868915 0.1294571341080636 -0.013800724469471337
0.22157672774233655 0.12957692644853336 -0.013448803729749437
0.22260594956871577 0.1297859976334685 -0.0131696763523807
0.2237052464458728 0.12990857670588668 -0.012818038735813442
0.22487526151474507 0.12994514196181006 -0.012393973911676182
0.22604796921206366 0.1299835301038738 -0.01197005170037746
0.22736113027458899 0.12984936687870213 -0.011401062771671355
0.22860876979530187 0.1298046716129596 -0.010904852225939066
0.2302060611157205 0.12932779328182226 -0.010045814275679854
0.23146109378278806 0.1292881171386011 -0.009549986849804792
0.2326495301220865 0.12933714007175062 -0.009126905745452996
0.2339106633360976 0.12930156714336427 -0.008631417580642176
0.2351047870998449 0.12935437159114727 -0.008208679176860356
0.23630166878350212 0.12940897348108538 -0.007786128810949977
0.2387718187310025 0.1279190514488206 -0.0060572028001816824
0.24139404619334714 0.12626514737406536 -0.004183441414128242
0.12915795961415866 0.06439981143127715 -0.014362741815227342
0.11502967678813227 0.10501721484201548 -0.041265848515392445
0.11575059974646819 0.10543468745836987 -0.04118967625993067
0.11647173335383747 0.10585212429861884 -0.04111362265122931
0.11715002838604778 0.1063759247341291 -0.04111062116450026
0.11774156452065103 0.10711181141419418 -0.04125361155980806
0.11833203062397836 0.10784663694637792 -0.04139674819718778
0.11892142363308615 0.10858040619810538 -0.041539989323994136
0.11950973259965954 0.10931317069930713 -0.0416833736592058
0.12014110715308442 0.10993931134735152 -0.04175396732838807
0.12077183117282546 0.11056477644321999 -0.04182466823647793
0.12144649785810945 0.11108429885089355 -0.04182257227290703
0.12212096151970857 0.11160349295320654 -0.04182058056425986
0.1227952382091587 0.11212231151548996 -0.04181872897127442
0.12346931392025638 0.11264077371218889 -0.04181699948436049
0.12409778722787289 0.1132634722958073 -0.04188833006787274
0.12472564194931561 0.11388548948147281 -0.04195978613754642
0.12535289500827995 0.11450681540505492 -0.04203134402954764
0.12593346626787466 0.11523156868515377 -0.04217598940558312
0.1265130073139098 0.11595531997782071 -0.04232076372709109
0.12718451668358915 0.11647058891189888 -0.042319775590894365
0.12780913289837764 0.11708912053867876 -0.04239183933891849
0.12848008977779746 0.11760357969946544 -0.04239108450876089
0.12910374289760684 0.11822096693336293 -0.04246339394770918
0.12972681929934626 0.1188376666466226 -0.042535814451443665
0.13034929300583104 0.11945376357373194 -0.042608357803778946
0.13097120297272807 0.12006920505878088 -0.042681036280840357
0.13164052205688498 0.12058139741525925 -0.04268089250916704
0.13226147782167536 0.12119574548354028 -0.042753790058873226
0.13297872663210714 0.12160489799570223 -0.04268093787915411
0.13364762612937586 0.12211618704522176 -0.04268114503040474
0.1343652333655203 0.12252526566661481 -0.04260850257527271
0.13508315000566534 0.12293433750779675 -0.04253600681116204
0.1358506285592465 0.12324188550705584 -0.04239067881965003
0.1366683648122285 0.1234483225335149 -0.04217251568969657
0.13748723765403076 0.12365546368474478 -0.04195448953613923
0.1384071537465541 0.12366104889800938 -0.041590672481569196
0.13937921923576846 0.12356706210067592 -0.04115403965122971
0.14035375597864885 0.12347471893942208 -0.04071755541326427
0.14138129819266138 0.12328347647128962 -0.040208207203589086
0.14246252882568505 0.12299373853199491 -0.03962606645321709
0.1434960709836725 0.12280662806933418 -0.03911699378775746
0.14453250586046962 0.12262156309001515 -0.038608021825544264
0.14557182959875403 0.12243846677914422 -0.038099195075615266
0.14656241828578337 0.122357220439266 -0.03766342254688862
0.14755547720381257 0.12227763176557938 -0.037227789684962154
0.1485510002168443 0.12219978493875577 -0.03679224293639238
0.14954901147996336 0.12212356479501152 -0.03635686282939754
0.15065448772050566 0.1218507445648584 -0.03577570274397529
0.15171059010363758 0.12167924057464208 -0.035267624065772024
0.15276960519221816 0.12150976733621188 -0.03475966417962659
0.15383153204136202 0.12134229456789913 -0.03425184089707625
0.15489637458617228 0.12117685477281714 -0.033744136446194395
0.155964132826649 0.12101344795096586 -0.03323655082698099
0.15703481683389248 0.12085202242478704 -0.03272911982095286
0.15805443648802037 0.12079067205240751 -0.032294738916580745
0.15907653227580276 0.12073102810088943 -0.031860471021118886
0.16004673353543208 0.12077074617674405 -0.031499262902327685
0.16107362420942883 0.12071433898848788 -0.031065254588009544
0.16204818779130736 0.12075699491092318 -0.03070432420832253
0.16307987634173626 0.12070382670737356 -0.03027057551475873
0.1641140889470848 0.12065235615601999 -0.029836967200985914
0.1651508235670756 0.12060257409417563 -0.02940346643993269
0.1661900683085084 0.12055450177010246 -0.028970129762114938
0.16723182207599113 0.12050816030278233 -0.028536906528924016
0.16827609785306114 0.120463544547882 -0.02810380582437627
0.1692665554420128 0.12051686937266132 -0.027743772214344098
0.17025912246828057 0.12057156903871286 -0.027383882403803378
0.17125379783647232 0.12062766466501845 -0.027024085754145555
0.17225056768583635 0.12068516124828349 -0.02666444768184978
0.17324943792408232 0.12074407032026713 -0.026304926553102542
0.17425043751355757 0.12080434659083716 -0.025945525599623515
0.1752535335517566 0.12086604006992324 -0.025586274337543208
0.1763165962880519 0.12083400576536735 -0.02515425131723012
0.17732414333742197 0.1208986805415761 -0.024795255081074552
0.17833383972466033 0.12096470778481555 -0.024436397108998587
0.17928716427275138 0.12112681571688055 -0.0241505873799093
0.18018349998427868 0.12138448630445592 -0.023937778856602032
0.1810811088897582 0.12164293292158923 -0.02372512694331566
0.18198001287570964 0.12190212695424063 -0.023512584153940086
0.18288017353163477 0.12216212911028462 -0.023300171019615984
0.18378164225156918 0.12242287353751358 -0.023087876093218995
0.18468439313610902 0.12268440065863456 -0.022875737895674708
0.18564841288585737 0.12285317452414551 -0.02259080347727932
0.18655396323647494 0.12311642642325216 -0.022378916252145747
0.1875212185516525 0.12328723425683913 -0.022094247495077268
0.18849020110144027 0.12345914063874264 -0.02180975027460952
0.18946091121282932 0.12363217488753653 -0.021525332258904545
0.19043334454594474 0.12380631949331405 -0.02124107681461579
0.19140754147883632 0.12398152999975742 -0.020956954524639276
0.1923219856589511 0.12425029471097088 -0.0207458446036346
0.1932377523039404 0.12451984197153892 -0.020534835257267514
0.1941548435268075 0.12479017385527846 -0.02032400102564408
0.19507326169987582 0.12506129162053958 -0.020113267428074066
0.19599300342815573 0.1253332080390841 -0.01990270001967387
0.19691406156309382 0.12560594687587429 -0.019692206369578857
0.19783645474167189 0.12587947811089234 -0.019481887972864598
0.1987601883264311 0.1261538052239331 -0.01927167038845151
0.1996852683705329 0.12642892556901608 -0.019061595408595533
0.20061166591162988 0.1267048844362736 -0.018851659801576937
0.20160303251509243 0.1268908093594167 -0.018568994813264683
0.2025323377203303 0.12716854380572246 -0.018359329435980898
0.20352702680286822 0.12735659684514494 -0.018076913436263053
0.20452351197280588 0.1275457552143313 -0.017794696621300954
0.205521748621032 0.1277360964448762 -0.0175125743039099
0.20645714154453526 0.12801753239236158 -0.017303446930408084
0.2074587503633225 0.12820997949576968 -0.017021609907968804
0.2084621898644548 0.12840351275604173 -0.01673992475252012
0.20946738074015508 0.12859825123742918 -0.01645835798128603
0.21053992938977495 0.1287047155681748 -0.01610410238339638
0.21161470351904071 0.1288126485954582 -0.015750024922223715
0.2127576655868213 0.12883299101105927 -0.015323266783296319
0.21383710349472002 0.12894404861140552 -0.014969456078547938
0.21485244514520707 0.12914525562731444 -0.014688632637756327
0.2158695557845136 0.12934768095003646 -0.014407927814510502
0.21688853046056106 0.12955120241888124 -0.014127384212118843
0.21784227116927513 0.12984419128651692 -0.013919789282570094
0.21886467030841478 0.1300498870562639 -0.013639513843781204
0.21982142800588567 0.13034471793078578 -0.013432199504187559
0.2208472919084506 0.13055255878129418 -0.013152228410956701
0.2218749581957319 0.13076161316885093 -0.012872394201711879
0.22290447432160698 0.13097181996104584 -0.01259271817717883
0.2240724611384325 0.13100855681692625 -0.012167577714225053
0.22517464445505814 0.13113423443437983 -0.011815440763855989
0.2264165571628134 0.13108744401527045 -0.011317853200661254
0.22766163772542447 0.13104274079076556 -0.010820468017661344
0.2295323350273601 0.13022007568793986 -0.009668289103368422
0.2307856096840143 0.130181090142167 -0.009171235265973077
0.23204207489726947 0.13014419386636072 -0.008674393021523397
0.2333016771600867 0.13010945063891166 -0.008177699277037709
0.23463447763729323 0.12999077979426338 -0.007608426872664442
0.23597087573537895 0.12987455978867407 -0.007039335805398783
0.23836769598956448 0.12847481254506254 -0.005379163453300251
0.24105722420344178 0.12673999453181967 -0.0034282892718114355
0.12892757092972396 0.06450602626802265 -0.013408145439582908
0.11480523669297153 0.10516382476687214 -0.04044654155009725
0.11552682025609166 0.10558192125784421 -0.04037029783724469
0.1162485895238368 0.10599997823126522 -0.04029416352869389
0.11692764831758672 0.10652419816971798 -0.04029126127957516
0.11756335177296974 0.1071540872110377 -0.040361591459572826
0.11815506203377087 0.10788910468292645 -0.04050514846724276
0.11874568722937139 0.10862313143440144 -0.040648839757744026
0.11933522736482628 0.10935613024255197 -0.04079265035515309
0.11996770600863522 0.10998269179766273 -0.04086349927464694
0.12059954607963135 0.11060858668637635 -0.04093445559149078
0.12127518875413561 0.11112873063134587 -0.0409324349407717
0.12195062549251807 0.11164849973772961 -0.04093054524247683
0.12267074789353564 0.11206320350822108 -0.040855672450208824
0.12334602086996847 0.11258245162912295 -0.04085402120733109
0.12397580758321274 0.11320572662093598 -0.04092560981389695
0.12460500459484973 0.11382831923644438 -0.04099730040123273
0.12523357207705305 0.11445024476101978 -0.04106914021778499
0.1258155827981069 0.11517540187930758 -0.04121420570318601
0.1263965752664722 0.11589956589594225 -0.04135940029250193
0.1270228972391781 0.11651917246896137 -0.04143160249258654
0.12764863651337843 0.1171380870784533 -0.04150391567823619
0.1283205493953795 0.11765318250809159 -0.04150321807211896
0.12889830100063487 0.1183740662731862 -0.04164889554019302
0.1295222472280511 0.11899106487384897 -0.041721574254961924
0.13014562373544408 0.11960740358956201 -0.0417943880152358
0.1307207470833277 0.12032568405818012 -0.04194042279668539
0.13139061156534626 0.12083817806391917 -0.04194034863393742
0.13201225177242193 0.12145261284421144 -0.04201347198697372
0.13268161160766528 0.12196433261977396 -0.0420136317640345
0.13335083420401467 0.1224757729617591 -0.04201389666745217
0.13411737345182773 0.12278340700932172 -0.04186808389578536
0.13483570243090132 0.12319296265699253 -0.04179548664949301
0.13560349119437698 0.12350114758139308 -0.041649880430448566
0.13642135572205988 0.12370845662303998 -0.04143128837435922
0.13728999778035017 0.12381530709394539 -0.04113970764940611
0.13821002429556395 0.12382226870498303 -0.040775149511277003
0.13918208509489727 0.12372981656840826 -0.040337589768011384
0.14015661510256416 0.12363903612813704 -0.039900160765972026
0.14118402759353055 0.1234494868606571 -0.03938973248263264
0.14221433083575502 0.12326196682496227 -0.038879413788503014
0.14324753191012013 0.12307642212204961 -0.03836924042548939
0.14428361476509 0.12289289998658803 -0.0378591765328537
0.14532259041665035 0.12271137902268775 -0.03734924008057561
0.14631297108404545 0.12263147906241878 -0.03691252296947847
0.14730579601031074 0.12255328427991835 -0.03647594233307244
0.1483010870769111 0.12247680328405713 -0.036039465661170944
0.1492988633256001 0.12240199106161098 -0.035603128854122645
0.150351485607996 0.12222988353122893 -0.03509380986436467
0.15140701862828898 0.12205979050107629 -0.03458461855262787
0.15246546238647907 0.12189171197115306 -0.03407555491891223
0.15352682585321958 0.12172565460579332 -0.03356661908204958
0.1545910940774216 0.12156160729777366 -0.0330578108439869
0.1556582779972901 0.12139959296298475 -0.03254912143759267
0.15672838264837513 0.12123958576264737 -0.03204056875362535
0.1577475410541888 0.12117946045165767 -0.03160523706436805
0.15871511433079494 0.1212187276107402 -0.031243126818726347
0.15973905267173416 0.121161827955789 -0.03080805451255983
0.16071100519933984 0.12120398587441106 -0.030446183366264867
0.16168502230594012 0.1212475225355456 -0.03008447040122597
0.16271605327634836 0.12119541874792444 -0.029649777234051322
0.1637495843021532 0.12114503915272218 -0.029215197392671727
0.16478564142821012 0.12109632914949209 -0.028780775782230927
0.16582422253646084 0.12104932388732781 -0.02834645283854642
0.1668653087306034 0.1210040542017139 -0.027912276087338955
0.1679089189796656 0.12096048216829597 -0.027478239715922448
0.16889883709644077 0.12101467814455202 -0.027117432525333496
0.1698908445861122 0.12107030800541646 -0.026756724308313468
0.17088497347902576 0.12112728437042136 -0.02639614507330376
0.1718811918175614 0.12118568753116477 -0.026035706524897645
0.17287951156764514 0.12124548915051492 -0.025675393845614042
0.1738799637319018 0.12130665310102634 -0.025315243094243878
0.1748250272150048 0.1214643466210546 -0.025028248425882443
0.1758871800925399 0.12143324847296555 -0.024595241941983065
0.1768939723740542 0.12149863445663345 -0.024235469273307497
0.17790289896456707 0.12156540611188899 -0.023875807933547433
0.1788555837846479 0.12172807407729719 -0.023589365888270486
0.17975140582399635 0.12198613212821002 -0.023376087135087542
0.18064849806707922 0.12224496398723617 -0.0231629649523149
0.18154688940351804 0.12250453145311319 -0.02294996085863754
0.18244653937748206 0.12276492329393934 -0.022737077534048383
0.1833474874221358 0.12302606477172834 -0.022524303372980586
0.18424972014917018 0.12328797602401981 -0.022311694886144734
0.18521308765981376 0.1234573302080414 -0.022026110161776802
0.18611811135471518 0.12372097471481869 -0.021813743622751236
0.18708474094808597 0.12389232340730383 -0.021528460559085333
0.18805306173789216 0.12406483261432999 -0.021243295082470692
0.18902313566171236 0.12423839994696556 -0.020958262621531193
0.18993400049640835 0.12450567394673401 -0.02074640123578564
0.190907328399407 0.12468130371694802 -0.020461625768068037
0.1918210366085618 0.12495030553470388 -0.02025003376042936
0.19273607829857692 0.1252200685059246 -0.020038560297407915
0.19365241104607 0.1254906651471518 -0.01982721694495987
0.1945700862450767 0.12576202960617788 -0.01961599225596078
0.19548909444744594 0.12603417730074506 -0.019404909993271047
0.19640940818593933 0.126307154631708 -0.01919396694497638
0.1973310733465996 0.1265809064448039 -0.01898314267896245
0.1982540530140373 0.12685549455862954 -0.018772457746175364
0.1991783800907579 0.12713086896325537 -0.018561882630484527
0.20010403941823168 0.12740706327097173 -0.01835146490712397
0.2010945214904889 0.12759342552160824 -0.018068128711675124
0.20202308623944015 0.12787139374228934 -0.017857981188341476
0.2029530000901142 0.1281501790908004 -0.017647925680469467
0.2039483799251744 0.12833962554140738 -0.017365025821417746
0.20494555345951937 0.1285301898334344 -0.01708224169134437
0.20587994766250595 0.12881176407585482 -0.016872608078519535
