ply
format ascii 1.0
comment pointcloud saved from Clarks Foot Scan v1.0
element vertex 792
property float x
property float y
property float z
end_header
0.15349143885683375 0.12358560778837863 -0.08979399267837268
0.1544165716279059 0.12332471892120073 -0.09013209984044426
0.15524471133161027 0.1229795318919833 -0.09040932247389905
0.15597630325688422 0.12254928940692933 -0.09062576079311319
0.15661180862729784 0.12203336185799735 -0.0907813760285904
0.1572466157283382 0.12151796596558295 -0.09093713983018478
0.15797564569923883 0.12109036332686085 -0.09115395996705034
0.1587037133404679 0.12066379110900088 -0.09137086963748006
0.1595253471583496 0.12032589994223619 -0.09164884186995478
0.1603457229467387 0.11998947760051015 -0.09192688966791274
0.16097638754599541 0.1194782812421527 -0.09208333778421474
0.16160639907745927 0.11896760259195732 -0.09223995059928106
0.16232971018625297 0.11854610865554033 -0.09245749226997574
0.16295829487120383 0.1180367731101965 -0.09261437290965657
0.16358624422263962 0.11752799334152764 -0.09277139115039842
0.164120047002337 0.11693043775471645 -0.09286777106517749
0.16474681785523443 0.11642245110039862 -0.09302511073524253
0.16546619329066864 0.11600480714692768 -0.0932433651142909
0.16618462164468983 0.11558812809971669 -0.09346172837080696
0.16680920785255837 0.11508221059949858 -0.09361950961449073
0.16743317155702386 0.11457680840027101 -0.09377743837710417
0.16805649812089563 0.11407193304321772 -0.09393548134616556
0.1686792025775568 0.11356756110588012 -0.09409371378573911
0.16920901789216164 0.11297257054053772 -0.09419135798520917
0.16973847059887553 0.1123776026865479 -0.09428920853942843
0.17017559667755233 0.11169103204554998 -0.09432656260788105
0.1707045713696297 0.11109591474437747 -0.09442476305426611
0.17114151164021146 0.11040871852359835 -0.09446249944156815
0.17157846453728726 0.10972109596103624 -0.09450041334966383
0.17192395318495224 0.10894044187357965 -0.09447793669114427
0.17226973067801477 0.10815886610743963 -0.09445568784850392
0.17261579701647484 0.10737636866261624 -0.09443366682174278
0.1728711963263299 0.10649967918812753 -0.09435128357517014
0.1730363951240746 0.1055281161871115 -0.0942085927668562
0.1732024434741573 0.10455461841390817 -0.09406619813414527
0.17336939537179596 0.10357927631150676 -0.09392410228709233
0.17344685558948952 0.10250779636513196 -0.09372175092581606
0.17352552996706516 0.10143399012234472 -0.09351972233451414
0.17378551294184863 0.1005471581229131 -0.09343900825024609
0.17395620708907567 0.09956399366571594 -0.09329807622885433
0.17457658587676922 0.09905464972181699 -0.09345981641761256
0.1720597656740464 0.09520713266340625 -0.09150553958104918
0.12848395152142628 0.1172980979597052 -0.07668441551046962
0.1292543701593043 0.11681451743420829 -0.07690085347518363
0.13304073777594938 0.11890276011936912 -0.07901704039108784
0.13778857097049352 0.12183786857326556 -0.08174536014081599
0.139224368548783 0.12195766533848068 -0.08239027720908673
0.14007582696918142 0.1215800299336055 -0.0826676794883292
0.14102273203146926 0.1212877512600497 -0.08300646595304217
0.14187145236920518 0.12091336008951137 -0.08328409274117199
0.14291175608495715 0.12070911091207454 -0.08368425039658337
0.14606825462192735 0.12236706947666776 -0.08543096273163361
0.14700536853992918 0.122087945393279 -0.08576984071131391
0.15062830594425664 0.124190700055342 -0.087821907038557
0.15165394839806007 0.12400720077239474 -0.08822180047772482
0.15258199301898023 0.12374062175863987 -0.08856064114362583
0.1535085232686143 0.12347605195827316 -0.08889951270450239
0.15443349332688017 0.12321344074132529 -0.08923850148784165
0.1553568805023291 0.12295277997653958 -0.0895775504914485
0.15608851588275768 0.12252129310720522 -0.08979450301280781
0.15672428457791393 0.1220042355650392 -0.0899504146674639
0.1573593912646371 0.12148776205386697 -0.0901065045959955
0.1580885129893599 0.12105895069220579 -0.09032379465746826
0.15881660426907274 0.1206310991089059 -0.0905412455293797
0.15973244887011967 0.12037936830872292 -0.09088091598146847
0.16055256743437057 0.12004181426891947 -0.09115964538826038
0.16118337571514157 0.11952973982145199 -0.09131638895774571
0.16190740242417406 0.11910643405484794 -0.09153429034479024
0.1625367494650095 0.11859568934254594 -0.09169132804965924
0.16316544726708493 0.1180854781152636 -0.09184852132235805
0.16379351175759937 0.1175758095070133 -0.09200581967057023
0.16432763092530345 0.11697752739842632 -0.09210232627238124
0.16495455351397326 0.11646868232743901 -0.092259985085343
0.16558086125730564 0.11596038411115744 -0.0924177731553654
0.1662993553012988 0.11554247062190787 -0.09263663304072492
0.16692423512298527 0.11503545274313809 -0.09279471681999926
0.16754848196886418 0.11452895553183595 -0.09295291500245506
0.1682645300614301 0.1141135629705487 -0.0931721761825832
0.16888736187621417 0.11360831569136348 -0.09333071261607401
0.169509574956189 0.11310358941973675 -0.09348935481364559
0.17013118782801717 0.11259939846163192 -0.09364815958075953
0.17056856392961184 0.11191271458229701 -0.0936854137179409
0.17109756105651464 0.11131732802773625 -0.0937837176539757
0.17153475551480057 0.11063001239391346 -0.09382135430673996
0.17197191987658556 0.10994226939803498 -0.09385919439760002
0.17231784999519872 0.10916162585339556 -0.09383644992695866
0.17266406062963702 0.10838007297948621 -0.0938139328787295
0.17291968960976395 0.10750474800440923 -0.0937308574694059
0.1731758676061148 0.10662797673915697 -0.09364804541553468
0.1733419979197378 0.10565643846326261 -0.09350475140919293
0.17341858979012237 0.10458945270013664 -0.09330100419114878
0.1734963596198878 0.10352009833641163 -0.09309758265923512
0.17357530318380876 0.10244837147650454 -0.09289445399280397
0.1735654367384521 0.10128000988522295 -0.09263095308301253
0.17391651477543263 0.10048692839739137 -0.09261053763146412
0.17426790006359527 0.09969291939626046 -0.09259034155342782
0.17023061617368218 0.0942422346802842 -0.08959835946379155
0.17085817590966385 0.09372047376805592 -0.08976124436275931
0.12969853795326525 0.1182182820872113 -0.07649260392827234
0.13046733937173288 0.11773598365275156 -0.07670944971381391
0.13395460686690447 0.11957296683472496 -0.078647115659883
0.1384992844521653 0.1223371650733 -0.08126017519311371
0.13964235972957695 0.12220639422308949 -0.08172246807783329
0.14049326455450933 0.12182810942744215 -0.08200051934249264
0.14143934176033274 0.12153498841035348 -0.08234012801395132
0.14228748828973942 0.12115992474915827 -0.08261838883525208
0.14332679955723177 0.12095471140358433 -0.08301959377718837
0.14647797268598056 0.12260875567446577 -0.08477114342729802
0.14731838996477142 0.12224419613029325 -0.0850494907915694
0.1509351852483244 0.12434214488550577 -0.08710726841170202
0.15186435562944256 0.12407235214919138 -0.08744683270572404
0.15260100252643305 0.12363388574112161 -0.0876638264099627
0.1535272956403041 0.12336752214025465 -0.08800361794996672
0.15445210467196435 0.12310319736745817 -0.088343446501358
0.15537530092792468 0.12284078155086675 -0.08868337110818761
0.1561071904283986 0.12240783507474196 -0.0889007686028476
0.15674335234905473 0.12188943236088429 -0.08905706667858707
0.15737890049950637 0.12137163926907213 -0.08921346612674971
0.15820262718332545 0.12102823223904685 -0.08949254752213331
0.15893084675311508 0.1205991922854302 -0.08971047473016397
0.15984636266097513 0.12034593215032735 -0.09005100496560078
0.1606663818667713 0.12000702365486632 -0.0903303815055185
0.16139126786116686 0.11958169303069377 -0.09054864939621979
0.1621152347055172 0.11915739203667086 -0.09076705547868
0.16274470313261064 0.1186457492227273 -0.09092437358611963
0.1632801452950532 0.11804612780335938 -0.09102067264028751
0.16390847531358138 0.11753534625510081 -0.09117833275387416
0.16444307537834735 0.11693609372382302 -0.0912749738136917
0.16497735280431752 0.11633691191465245 -0.09137177655725343
0.16560405748130458 0.11582726416295769 -0.09152987666959589
0.1663228182605797 0.11540789268337676 -0.09174924736628548
0.16694813363456867 0.11489954253446277 -0.09190764969775861
0.1675728160327501 0.11439171305301638 -0.09206616643241322
0.16828906026667417 0.11397480682752503 -0.09228596765079669
0.16900439355924746 0.11355889774219069 -0.09250584220657737
0.16971881844949455 0.11314398089867483 -0.09272586477361888
0.170340567009018 0.11263890224930895 -0.09288497392811718
0.17087006888230438 0.11204298189617301 -0.09298320858896245
0.17149072056024667 0.11153868262484584 -0.09314259646911427
0.1719281567118781 0.11085126610209944 -0.09318013279714021
0.17236553912130503 0.11016337145928023 -0.093217908693533
0.1727119166222923 0.10938275114696228 -0.09319488737820211
0.17305859068718177 0.10860125077996585 -0.09317210824079578
0.1732240945506731 0.10763328009278139 -0.0930276392902196
0.17348105889158544 0.10675645859048088 -0.09294438016718073
0.17355778673559563 0.10569175987113949 -0.09273955920244867
0.17354542641221055 0.10453130064048627 -0.09247411537406455
0.1736246635401263 0.10346167008863749 -0.09226990178148364
0.17361513566777054 0.102295788604432 -0.09200512252368206
0.17360706022705935 0.10112702431851595 -0.09174072847639783
0.17422820761781682 0.10061626194559875 -0.09190262602544455
0.17117829228111042 0.09622579146192867 -0.08957007419816856
0.1704637383279063 0.09428315876319998 -0.08882040011048994
0.16903922088275852 0.09157296152790717 -0.08758478783534182
0.13043394781247386 0.1198642751466873 -0.07627148074018963
0.13071556282379643 0.11897185563799667 -0.07618033034639868
0.13148306731519943 0.11849037572343207 -0.07639755714966748
0.13467278131034655 0.12007651971900746 -0.07815563451748209
0.1391121090301981 0.12275271924104075 -0.08071439862493476
0.14006046939933614 0.12245510777244373 -0.08105463198209023
0.14091074198062065 0.12207609823971105 -0.08133333776937834
0.1418560438538724 0.12178217443601375 -0.0816737571906927
0.1427036228825681 0.12140643909239113 -0.0819526849641791
0.14374192700417104 0.12120026304957443 -0.0823548712562441
0.14468251238556512 0.12091225922183613 -0.08269553347330033
0.1479191232348367 0.12265418497018021 -0.08451333949156167
0.14875737791105548 0.12229089069800864 -0.08479239014183934
0.15226653156800368 0.12430791725462614 -0.08679420438132679
0.15262164330511624 0.12352814235347293 -0.08676560815579071
0.1535477997095921 0.12326007205164574 -0.08710622198891177
0.15447238961508147 0.12299395952500791 -0.08744692012548091
0.15539544747544598 0.12272982821353501 -0.08778770887864329
0.15612754460437644 0.12229541540377908 -0.08800561901875498
0.15676413408351603 0.12177567081762625 -0.08816224458089425
0.1574000934690597 0.12125653860078134 -0.08831898005619065
0.15822384258048433 0.12091153219391071 -0.08859874227297676
0.1590463640119309 0.12056803429705071 -0.08887861879557218
0.15996159536048526 0.120313286663076 -0.08921996434008558
0.16068764292299753 0.11988546156353397 -0.08943862232529293
0.16150643699931133 0.11954641714978909 -0.08971878836784464
0.16223046389752216 0.11912083700236936 -0.08993767681546977
0.16286023573933123 0.11860813234652567 -0.09009531191891207
0.16339615288740983 0.1180075278149626 -0.0901917544636543
0.16393171683230284 0.11740699641267838 -0.09028837587197527
0.16446693973261534 0.11680654156711717 -0.09038516740640762
0.16500183999413204 0.11620615744366325 -0.09048212062458413
0.16562897814102845 0.1156951805091776 -0.0906405391907586
0.16634796112551192 0.11527432108449204 -0.09086042322146728
0.16688142493219227 0.11467484378186488 -0.09095783935835366
0.16750665492827777 0.11416540864272456 -0.09111672649698613
0.16822332342741397 0.11374684362088594 -0.0913369947233234
0.16893905323514863 0.11332924122618343 -0.09155740484450986
0.16974555532714303 0.11300332618768005 -0.09183916452351662
0.17045928798796822 0.11258788081079463 -0.09205979222057706
0.17108070349312038 0.1120822232585742 -0.09221935123286207
0.17170150690683506 0.11157706557057745 -0.09237905825591064
0.17213946930028795 0.11088904047259363 -0.09241654494775084
0.17257739985060022 0.1102005691483432 -0.09245424430698815
0.17301533295119442 0.10951166496751213 -0.09249213002285336
0.17327189372230017 0.10863754426741679 -0.09240793927905888
0.17343854619505683 0.10766940403165265 -0.09226289606845386
0.17360607119434834 0.10669942368484725 -0.09211809424784462
0.1736842622321617 0.10563446502237844 -0.09191251364962616
0.17367355649017102 0.10447385955946237 -0.0916461096829908
0.1737542711133273 0.10340397947486663 -0.09144116044173717
0.1737464281114413 0.1022379813730806 -0.09117542716209603
0.17374001316355048 0.10106908354440602 -0.09091006394399276
0.17221404633029153 0.0982949142057784 -0.08960743901113938
0.17167719644497215 0.09654938401319674 -0.0889768326288442
0.17025183588838338 0.09385079894803983 -0.08773668292408432
0.16927788932226595 0.0916166368691741 -0.08680229020721544
0.16555338883182608 0.08642301263849655 -0.08397815229095176
0.1311575105325506 0.12036921467937839 -0.07577618486570825
0.13163328161697546 0.11964171823395525 -0.07580825951299897
0.1323996555578869 0.1191608519431609 -0.07602593112349704
0.13529309029584513 0.12049666022464356 -0.07760340456138201
0.13644047945563925 0.12035395854351472 -0.07806830366900155
0.1404786491385151 0.1227037501846231 -0.08038674795156672
0.14142462281026785 0.1224072857013978 -0.08072786955704683
0.14227289882979988 0.12202935849610558 -0.08100733309217525
0.14311983936766837 0.12165290767745762 -0.08128691509319014
0.14415720727305914 0.1214458026597065 -0.08169006283612668
0.1450969891756383 0.12115697341361348 -0.08203156240890808
0.1484236307011943 0.12297921008699536 -0.08391613504667692
0.1491657849813568 0.1225308835913087 -0.08413412453802441
0.15009743016321198 0.12225323823211054 -0.0844756215376701
0.1526440140347578 0.12342345983102287 -0.08586589792440069
0.15347507483561074 0.12306838545871768 -0.08614567030105627
0.15449440282295634 0.12288577375383491 -0.08654894362560153
0.15541727950429096 0.12261991585691828 -0.08689058981848435
0.15614959883842977 0.12218401510205779 -0.08710901329261517
0.15688097611619917 0.12174917793823381 -0.08732757387647044
0.15751716859784903 0.12122889618376209 -0.08748463227844841
0.1582467719409637 0.12079587380967138 -0.08770346291500422
0.15906931607533026 0.12045074451411208 -0.08798399696275586
0.1599843847110783 0.12019427453036735 -0.08832622412853694
0.16071064648497985 0.11976495188356978 -0.08854540438196437
0.1615294994647149 0.11942431837531231 -0.08882622503351617
0.16225376630241178 0.11899728835130086 -0.08904559971745704
0.16288393547406793 0.11848322227876923 -0.08920358881480189
0.16342047545769306 0.11788141543292274 -0.08930018183415886
0.16395667439673783 0.11727968514379938 -0.08939694497962719
0.1644925361202349 0.1166780471882567 -0.0894938691202723
0.16502802684582962 0.11607643422319042 -0.08959096659828514
0.1655632231393107 0.11547492468226705 -0.08968823177808705
0.16628259633133718 0.11505237113998384 -0.0899086184551868
0.16681680509537777 0.11445142465032115 -0.09000622808263276
0.16744265671613157 0.11394046718549206 -0.09016540531580075
0.16815968552992783 0.11352016655009861 -0.0903862120236999
0.1688758100457451 0.11310084191152742 -0.09060713431567904
0.16968252896728336 0.11277312509122067 -0.09088954675189215
0.17039666405469578 0.11235599909447141 -0.09111070098179058
0.17101863717352517 0.11184873232906506 -0.09127058893830481
0.17182218271693572 0.11152465782617044 -0.09155334968394863
0.17226080946166183 0.11083577648449905 -0.09159081188714588
0.17269947247858564 0.11014651955906185 -0.09162841548086575
0.1731380515246685 0.10945676496915901 -0.09166628515045519
0.17339569742980993 0.10858208668579244 -0.091581689386945
0.1735636316641126 0.10761355917025472 -0.09143601296395545
0.17373242914112286 0.10664316126632856 -0.09129067066996088
0.17372208110986342 0.10548499624303359 -0.09102303119219876
0.17380306908415127 0.10441718936661132 -0.09081698207254946
0.173795538591416 0.10325364565280193 -0.09054999714913442
0.17378948834081515 0.10208726372059246 -0.0902833615026992
0.17378492834812187 0.10091804001449095 -0.09001703367349509
0.17297830996355895 0.09889886251558555 -0.08920017098379551
0.17190846860881714 0.09658951101631252 -0.08820032233518257
0.17128865362796308 0.09474467732831893 -0.08750697988057238
0.16996169561922003 0.09213497285582983 -0.08632488531229857
0.13178293661569135 0.12079157295858656 -0.07521994113158684
0.13245230910261957 0.12022828741831898 -0.0753759176900135
0.13321764184719226 0.11974775323248854 -0.07559402895732475
0.1357195982297632 0.12075140551399188 -0.07692790577799888
0.13686581109089402 0.12060763736699753 -0.07739396916721034
0.1384910353868975 0.1208810361124707 -0.07816988209113679
0.1395360542652176 0.12066110746143671 -0.0785740337606384
0.14288166484822445 0.12244307779682656 -0.08046477293004231
0.14353616037604994 0.12189932856532487 -0.08062110360056593
0.144572549677987 0.12169127160080229 -0.08102524803934419
0.14560705427098486 0.12148563289525766 -0.08142950368303759
0.1466397039270485 0.12128243380406889 -0.08183376944864651
0.1495742843558952 0.12277081528967565 -0.08347579342612732
0.15060020794649187 0.1225770519101298 -0.0838799742653131
0.1523834102070153 0.12306506384147503 -0.08477911664439772
0.1533096227465729 0.12279279118870307 -0.08512152099632161
0.15442352604974924 0.122693278008973 -0.08558764117444351
0.1553463721558644 0.12242542733404221 -0.08593017054479019
0.156173350712412 0.12207365920849572 -0.0862109419983933
0.1569049700120606 0.1216373690807267 -0.0864299889169311
0.15763556094909237 0.1212020356439657 -0.08664919674427435
0.1583652605465688 0.12076777642066477 -0.08686850682983899
0.15918764486520792 0.12042125358066236 -0.08714974102572182
0.16000889218977793 0.12007629788384883 -0.08743101000490583
0.16073540606177072 0.1196455287879038 -0.08765066775718156
0.1615542335061973 0.11930323828989525 -0.08793222283534188
0.1622787486129526 0.11887474603987869 -0.08815208414906561
0.16290935924833716 0.11835936038670714 -0.08831038276604147
0.16344650607987082 0.11775633202227542 -0.08840714412841527
0.16398333584828106 0.11715340902101956 -0.08850404881429738
0.1645198022768546 0.11655054256395542 -0.0886011085756781
0.1650559461270712 0.1159477568992881 -0.08869836264471742
0.16559173710985559 0.11534502241233524 -0.08879580490500358
0.1662192960855139 0.11483169396164133 -0.0889550302275253
0.16675431792225304 0.11422934892744407 -0.08905276206865631
0.1673807171409109 0.113716785804921 -0.08921230970580216
0.16809817854949177 0.1132948140237669 -0.0894335838151222
0.16881469535524513 0.11287379218024463 -0.08965500885185917
0.1695302591681595 0.11245372255347802 -0.08987655179863163
0.1702449507188099 0.11203467740242695 -0.09009820721659442
0.17095866146613153 0.11161653988482106 -0.09032001647813023
0.17185329452414955 0.11138178615177691 -0.09066500304421432
0.17238349520660828 0.11078327491322987 -0.09076390854407893
0.17282279234616899 0.11009314219971228 -0.09080151415665855
0.1733525192392164 0.10949448540956541 -0.09090080236933692
0.17343055526943169 0.10843527018179933 -0.09069282131432058
0.1735999017771056 0.10746608623461207 -0.09054658771227278
0.17377013759133714 0.10649505761813588 -0.09040066153498366
0.17376157808613768 0.10533650486883456 -0.09013208686977953
0.17384421189375415 0.1042682203356079 -0.0899253007414976
0.17383849013994207 0.10310431199567693 -0.08965739558288649
0.17383423674497367 0.10193752998804767 -0.08938982514247629
0.17383151161549276 0.10076797744521365 -0.08912258299775425
0.1733848469582141 0.09912566637071352 -0.08854874502765736
0.17240752404799609 0.09691279347188148 -0.08760712515893773
0.17214526239520023 0.09544754833982205 -0.08715705719590192
0.17091037592350167 0.09293641116139628 -0.08603258833852254
0.13250447388138686 0.12129494577289684 -0.07472653299507032
0.13317316884756653 0.12073191384183718 -0.07488280346247958
0.13403416949645325 0.12033356628550501 -0.07516350590470766
0.13585725386742264 0.1207593811608062 -0.0760658637982155
0.13690654036563765 0.12053134467849774 -0.07647098993890503
0.13872225205414462 0.12096748957764236 -0.07737326029692931
0.13976656404737486 0.12074614176920762 -0.07777844943295659
0.1406175711413511 0.12036090450236303 -0.07805945737166131
0.14385704004629635 0.1220623360182378 -0.07989313535240855
0.14479711641976867 0.12176942304791999 -0.08023623184257367
0.14592626263324698 0.1216462595137997 -0.0807035283342325
0.14695805372527754 0.12144184469044073 -0.08110883371326116
0.14969795622854853 0.12275777419897083 -0.08263121166840617
0.15072334960171596 0.12256235118855341 -0.08303642900762473
0.15212565237162984 0.12270847689857578 -0.08368985318354169
0.1531467223573476 0.12251882012356036 -0.08409514565156001
0.15426033780433707 0.12241683745917786 -0.08456250932618889
0.15527757140727738 0.12223225650073327 -0.08496792323707672
0.15619881446732164 0.12196434806318385 -0.08531139649698866
0.15693062360070997 0.1215265434629812 -0.08553095053476711
0.15775528678574208 0.12117594416384003 -0.08581263228902014
0.15848502977793416 0.12074043048596916 -0.08603242395281557
0.15921385362008106 0.12030594643824793 -0.08625235380836993
0.16003505311408628 0.11995931373915197 -0.08653434216354977
0.16076183338560762 0.11952710860443994 -0.08675450139948748
0.16158071167919746 0.11918320933947824 -0.08703668739693451
0.16221255945609458 0.11866571060278336 -0.08719516550672149
0.16284370969556428 0.11814870968976687 -0.08735384346187619
0.16338164528258603 0.11754427592591205 -0.08745074451286997
0.1639192578950585 0.11693993483572884 -0.08754779791993986
0.1644564935982027 0.11633560604651771 -0.08764503369694523
0.1649933963110245 0.11573137348647017 -0.08774246328977534
0.16553000244890054 0.11512723736762931 -0.08784002786211334
0.16615813891534587 0.11461234475519866 -0.0879995877534421
0.16678563480835706 0.11409795132680983 -0.08815931293373583
0.16741249564316757 0.11358408165324202 -0.08831915241884422
0.16803872429455535 0.11307070888459231 -0.08847919021029901
0.16875565354266903 0.11264800286571419 -0.08870110032012535
0.16938050076399974 0.11213591716141696 -0.08886136614868106
0.17000475610675614 0.1116243544212282 -0.08902179494024623
0.1708100284828064 0.11129487766003637 -0.08930583379450904
0.17206750134675486 0.11142206022169998 -0.08989856744664312
0.17259803513680416 0.11082280783283993 -0.08999763304438821
0.1730378845820364 0.11013209226318443 -0.09003516231654587
0.17356795043366124 0.10953269694193929 -0.09013456897062255
0.1734671374843394 0.10828947990193621 -0.08980247962471402
0.17345802555938244 0.1071352431350785 -0.08953236103995676
0.17371978620521322 0.10625554719116226 -0.0894475266766234
0.1737131895360267 0.10509640135159104 -0.08917803905536392
0.17388708499006889 0.10412029021823882 -0.08903213676089583
0.17388318621617838 0.10295601759227713 -0.08876330272798794
0.17388075338298498 0.1017888963375349 -0.08849479398724608
0.17379079787390872 0.10052533422269855 -0.08816506125620324
0.17352483926285095 0.09907080491776976 -0.08771254657745
0.17299504412946742 0.09732975734753158 -0.08707582504577599
0.17300010661443838 0.09614895925034195 -0.0868088204021436
0.17185686667179662 0.09373608680998008 -0.08574232496608353
0.1330317326953292 0.12163459658376086 -0.07410941444878516
0.13379655369230603 0.12115307206446113 -0.07432829773180002
0.13465663794526134 0.1207544955760827 -0.0746096459596867
0.13609229291573827 0.12085021809612806 -0.07526509725815667
0.13723690384832055 0.12070313971550156 -0.07573355260559231
0.1386668360027421 0.12080669310211439 -0.07638898030648006
0.13971092563696924 0.12058325068607573 -0.0767952111731536
0.14065761157937656 0.12027921840303968 -0.07713922983510485
0.14408300188480627 0.12214227061665611 -0.07910247630984088
0.14502264349135496 0.12184812445876203 -0.07944640432292169
0.14624595633245785 0.12180708908480409 -0.07997717550372443
0.14727699142965517 0.12160155261175148 -0.08038345553244355
0.14963328946710613 0.12257707474608631 -0.08166108630185429
0.15065847472226873 0.12237955746815588 -0.08206733673261843
0.15187077847574249 0.12235376017072286 -0.08259809539637519
0.15298629520107004 0.12224642712784523 -0.08306664767572641
0.15409963945101746 0.12214195027998337 -0.08353525563379643
0.1551168005668192 0.12195504235420374 -0.0839416857338234
0.1562260123379759 0.12185609160836397 -0.08441035921509957
0.15686427067850162 0.12133100925824347 -0.08456826945925647
0.15768910864158941 0.12097856325389755 -0.08485064854335408
0.15841922585368645 0.12054133625412716 -0.08507096072194256
0.15924176834445564 0.12019167135457937 -0.08535350141640305
0.16006298227224747 0.11984342967648715 -0.08563617952718641
0.1607899868313702 0.1194097335093171 -0.08585685219550995
0.16151602140275573 0.11897703620929401 -0.08607763265926677
0.16214842477137598 0.11845794141705612 -0.08623647223883057
0.16278020080030015 0.11793941200364416 -0.08639544048525438
0.16331890949092542 0.1173335316845 -0.08649250842093825
0.16385727297218405 0.11672773409678566 -0.08658974628599994
0.16439529743081638 0.11612199990815136 -0.08668712175162532
0.1649330031401246 0.1155163622887716 -0.08678468239397472
0.16547036014678684 0.1149107696723996 -0.08688243142430455
0.16609908243359162 0.11439430054881872 -0.08704232627790742
0.16681868366737362 0.1139676014337313 -0.08726433929604971
0.16744601450834823 0.11345242292999491 -0.08742450364650212
0.16807268462346436 0.11293773058070528 -0.08758485095758795
0.16869874855856898 0.11242355078514354 -0.08774533724686956
0.16923325026152464 0.11181967118661551 -0.08784400826064306
0.16976747002672526 0.11121587648811021 -0.08794284756640627
0.1707544983994776 0.11106542653214241 -0.08835142069744464
0.1701110871484494 0.10928118115975505 -0.08764588725131936
0.17055519838085303 0.10858446887653933 -0.08768347816196184
0.17108949525164152 0.10797869338280708 -0.08778313123728299
0.1716234906433186 0.1073729357860842 -0.087882956307684
0.1736852316886427 0.10832841002274296 -0.08903430942437757
0.17340841418023983 0.10689804672521058 -0.08857778056011129
0.17367155982471344 0.10601734861913992 -0.08849255534187667
0.17366692008011408 0.10485759699979452 -0.08822216379712963
0.17384237182840506 0.10388059445584685 -0.08807572043857828
0.1739295645557734 0.10280869441931634 -0.08786774820483106
0.17384001869255428 0.10154802192967333 -0.08753651699968151
0.17384103732751977 0.10037746708713735 -0.08726747759724557
0.17366619984250925 0.09901671401290801 -0.08687523484697582
0.1734048833716213 0.09755819853676506 -0.0864216823566257
0.17358797600579978 0.0965663706595512 -0.08627711775810287
0.17288943010681623 0.09462842053445486 -0.08551582908214145
0.133558690901675 0.12197394219287533 -0.07349260761586746
0.1342266996781704 0.12141053311027278 -0.0736494509370006
0.1350862201990085 0.121011290646035 -0.073931424362224
0.13623227011865952 0.12085954727935838 -0.07440104647695969
0.13737614897381673 0.12071070092347286 -0.07487070571344481
0.13870912163960725 0.12072963762505201 -0.07546540414644984
0.13975284281156042 0.12050433866770877 -0.07587266053042788
0.14069934374590515 0.12019856402237128 -0.07621754576303413
0.1444050895575013 0.12230586845590696 -0.07837353151385426
0.14515393670275073 0.12184387600994007 -0.07859342479205209
0.14656623377303113 0.12196822186545403 -0.07925038003105056
0.14769115544991673 0.12184529311260656 -0.07972009358476262
0.14947612986886033 0.12231364334536915 -0.08062671325146925
0.15059571027169388 0.12219809721418312 -0.0810964072926583
0.1517130758119058 0.12208538430617583 -0.08156619225753631
0.15273417170045905 0.12189084057409427 -0.08197359041773652
0.153847424578551 0.12178368874926859 -0.08244341390648413
0.15486465379525144 0.12159419121907555 -0.0828509273931422
0.15625488353134864 0.12174887270681489 -0.08350787384006339
0.15661291445145115 0.12096545634955003 -0.08347911753119036
0.15753160789768583 0.12069658668150379 -0.08382452826361966
0.15835555459312856 0.1203435854309517 -0.08410764275281407
0.15917823155710492 0.11999204776700889 -0.08439091612045607
0.1599996487449491 0.11964196006389372 -0.0846742742828826
0.16072703726443555 0.11920657904118614 -0.08489544930249693
0.161453430068088 0.11877214921496154 -0.08511676814944885
0.16208643907373854 0.118251512892733 -0.0852759156919502
0.16271879259344973 0.11773141931758424 -0.08543521850718105
0.1632582761343182 0.11712411130736178 -0.08553244409825372
0.16379740855439417 0.11651687333906474 -0.08562984865127196
0.16433620403423688 0.11590969568249448 -0.08572739090322068
0.16487470508196594 0.1153026214500672 -0.08582510085695846
0.16541284110365762 0.11469559496791015 -0.08592300773941058
0.16604214296364256 0.11417755859523909 -0.0860832372601873
0.16676213057593475 0.11374914958569637 -0.08630576205565518
0.16739004099008947 0.11323240383286981 -0.08646626107328143
0.1680172889317461 0.11271612537027897 -0.08662695228084238
0.16864398040294493 0.1122004359385328 -0.08678771963209178
0.1690885431897287 0.11150507083638894 -0.08682445656302543
0.16953311618486 0.11080930443137987 -0.08686136158871793
0.17088196920918092 0.11101836979552576 -0.0875193379134449
0.17006101218195263 0.10905340375106082 -0.08668749496698608
0.17050610187123494 0.10835539098536517 -0.08672506691469936
0.17104121181472204 0.1077482169470983 -0.08682484220370557
0.17157597406282327 0.1071410220571461 -0.0869248338636964
0.17184135950541657 0.10625877373282394 -0.08683890894650681
0.17336092955336113 0.10666218103450492 -0.08762135437457805
0.17362545670319818 0.10578044303785783 -0.0875357567600448
0.17353355453564084 0.10452772638758734 -0.0872024773932259
0.1737998079895759 0.1036422174032946 -0.08711745016493938
0.1738887804344994 0.10256958814592665 -0.08690873324945436
0.1738901477186779 0.1014015199252643 -0.08663840666317407
0.173893021308841 0.1002306392053014 -0.08636840264963733
0.17380889840811353 0.09896336404144596 -0.08603680371982303
0.17381489068398254 0.09778656217553833 -0.08576747311220576
0.1742634133318814 0.09707713084563241 -0.08580795420719456
0.13408537456427444 0.12231300831933989 -0.07287608579208099
0.1345609558866559 0.1215866084583978 -0.07290779762680974
0.13542003069284342 0.12118644939054496 -0.07319047169249548
0.1364692944486433 0.12095151705620777 -0.07359860447286601
0.1375166790107375 0.12071902755162761 -0.0740067974740014
0.13875309900497546 0.12065361386664464 -0.07454037145090534
0.13979645970847376 0.12042646797014767 -0.07494864441798685
0.14083790924299033 0.12020172649480393 -0.07535701334263728
0.14149747000048923 0.11964736692252514 -0.07551496611448782
0.1452865992643007 0.12184046087653988 -0.07773930409627816
0.14698165221563375 0.12221297736744019 -0.07858582955671065
0.1481054281582458 0.12208897974155558 -0.07905669021217998
0.1494158476027032 0.12213569002317781 -0.07965278160769682
0.1505350082870775 0.12201791281372942 -0.08012369429295038
0.15165200865467687 0.12190299522674097 -0.08059465391945528
0.15257889235300226 0.12162170380231707 -0.08094057259133117
0.15369188169211778 0.12151208934772739 -0.08141162210165084
0.154615405143741 0.121235200568795 -0.08175763346313544
0.15647248232753214 0.12181327352370985 -0.08272894372336778
0.15636439582674633 0.12060171476662901 -0.08238745040488976
0.1572834148548552 0.12033045300517775 -0.08273370526785839
0.15820089243313384 0.12006112204096514 -0.08308007823859068
0.15902388397081835 0.11970749879728881 -0.08336403223040431
0.15993842356413007 0.11944182700507844 -0.08371053177525822
0.16066618838591457 0.11900472957311792 -0.08393222740803241
0.16130055631913798 0.11848173524617833 -0.08409158813162157
0.16193423847734667 0.11795925405163621 -0.08425109801152855
0.1625673075972967 0.11743734864630045 -0.08441076054310923
0.16319973164327295 0.11691597055127767 -0.08457057883925323
0.16373967122462157 0.11630732134894173 -0.0846681146385243
0.16418755457494272 0.11561068032559729 -0.08470342541678202
0.16472690598226192 0.11500188466191968 -0.08480133846617563
0.16535743248940082 0.11448175372984548 -0.08496174688956282
0.16598731009353312 0.11396213433122654 -0.08512232020844787
0.1667077000719735 0.11353203463153044 -0.08534533891283938
0.16733616816024444 0.1130136897358075 -0.08550619949860921
0.16796406204377984 0.11249589580241637 -0.08566716332577079
0.168500606566938 0.11188886895850314 -0.08576601932889896
0.16894631373054209 0.11119200028873971 -0.08580272651090867
0.16930159611630763 0.11040452792356431 -0.08577736954372958
0.16902548197516143 0.10898339817372055 -0.0853164135486651
0.16983287084097942 0.10864567750862786 -0.08560276859062738
0.17027923294032166 0.1079459069920648 -0.08564034477279373
0.17081540611156065 0.1073368133532634 -0.0857403192748068
0.17144091798721495 0.10681907546987107 -0.08590267909507851
0.17179734527112267 0.10602713814296738 -0.08587857743310057
0.17349426897573023 0.10661118623870047 -0.08678748158701974
0.17384903652085054 0.10582091584865982 -0.08676364606024645
0.17340266660377696 0.10419938557795744 -0.08618061263482305
0.17375936324494495 0.10340513951618929 -0.08615735244748177
0.17385010533121154 0.10233177452318626 -0.08594789968609323
0.17385343545140297 0.10116311321225402 -0.0856766601437576
0.1739467178425963 0.10008481216858683 -0.08546787215018245
0.17404123026043172 0.09900418389222987 -0.0852593238103509
0.1742250584689246 0.09801482678042561 -0.0851132481982996
0.17484986170584338 0.0974931091802505 -0.08527772088634783
0.13451579515432416 0.1225707589180911 -0.07219698661206472
0.13479984251219895 0.1216816311717428 -0.07210292009269606
0.13565860717416306 0.1212803127301631 -0.07238624527252333
0.13661164580115814 0.12096224940306788 -0.07273256605727985
0.13765853003870598 0.12072814176357322 -0.07314175972327727
0.13879876185166745 0.12057863108895228 -0.07361388192474624
0.13984171587043642 0.120349599504607 -0.07402321585083599
0.14097778605110356 0.12020565815495515 -0.07449540219837639
0.14182720895102285 0.11981593715127742 -0.07477926383779873
0.14551521335008283 0.12192091434823576 -0.07694687541569861
0.14531802355927437 0.12062443020413516 -0.07654006536800093
0.14861421424998383 0.12241622143079212 -0.07845597246691399
0.14954609494133864 0.12212665202593875 -0.07880254158876904
0.1505704795105796 0.12192307046737583 -0.0792119015883308
0.1515929935514408 0.12172189743759204 -0.07962133152979262
0.15251988073221584 0.12143864855640446 -0.0799680977406951
0.15353881822537263 0.12124204868326399 -0.08037767533693155
0.1543690286088769 0.12087805475455216 -0.08066186327195377
0.15473135067688215 0.12008964938860722 -0.08063271370989888
0.15611877532209895 0.12023983366855562 -0.08129324768926358
0.15703809218203113 0.11996614530067845 -0.08164041524022353
0.1579558469830774 0.11969437651142983 -0.08198764399511871
0.15877933156920931 0.11933845614904987 -0.08227230103922423
0.15969417074098413 0.11907037661462455 -0.08261970404276814
0.16051500994488305 0.1187176274103735 -0.0829045620392613
0.16115009730737806 0.11819283703010458 -0.08306427334826577
0.16178451730064292 0.11766855394761727 -0.08322412537122087
0.16241833224946806 0.11714485625648724 -0.08338412111164867
0.163051477807109 0.1166216790207818 -0.08354429009157474
0.16359232651911976 0.11601133868205965 -0.0836420178247119
0.16413285608561407 0.11540110679386678 -0.08373988878299063
0.16467302090138525 0.1147908906340902 -0.08383793337373738
0.16530410474688695 0.11426918251068396 -0.0839986940376001
0.16593459806426164 0.11374802809687201 -0.0841595664835885
0.16665534835736207 0.1133161927836211 -0.08438312366954184
0.16728443041223573 0.11279629400849406 -0.08454429261171634
0.16782226440822473 0.11218759138535506 -0.08464310709625811
0.1683597660249591 0.11157893101796135 -0.08474210142804633
0.16871625432356047 0.11079072200302015 -0.08471634514642401
0.16907302071984043 0.11000162869772667 -0.08469080686117902
0.16906988579213872 0.10885061907861049 -0.08441576068720905
0.1696076196866836 0.10823981221918116 -0.08451554818305851
0.17005529866572044 0.1075383038362343 -0.08455309345307455
0.17059256112856158 0.10692731631599789 -0.08465324046385822
0.17121894888828476 0.10640751880592053 -0.08481593495080644
0.17166614299826172 0.10570537770128402 -0.08485404396078658
0.17175672824776433 0.10463615998153952 -0.084642921662852
0.1726495284029418 0.10439162744991326 -0.0849932084986085
0.17318541741489135 0.10378048792097994 -0.08509424043560099
0.17372102335351397 0.10316936045444008 -0.08519543592530618
0.17381352916969767 0.10209524703629769 -0.08498525635058188
0.17390724914576344 0.10101880732174284 -0.08477539954583196
0.17409041336060976 0.10003306330071932 -0.08462811459503
0.17418639736225983 0.0989521728021111 -0.08441883963909352
0.17454745210561384 0.09814949167614834 -0.084396642003357
0.1350396109402428 0.12177714864307809 -0.07129730202074158
0.1358980940004192 0.121374681578243 -0.07158129366042335
0.13675529168467826 0.12097375549589418 -0.07186538288306671
0.13780162353041847 0.12073798835357569 -0.07227566324631304
0.13894115349459113 0.1205867292480885 -0.07274896282932874
0.13998359919499476 0.1203560699266778 -0.07315930635448151
0.14111893346920407 0.12021034482490928 -0.07363270572200589
0.14206284602812624 0.11990200431628334 -0.07398021098428689
0.14309967530709733 0.11967862065904566 -0.07439074548307004
0.14583234290235192 0.12095528933302269 -0.07593447819276977
0.14686273865815103 0.12074084330326507 -0.07634496951948136
0.14967765521676374 0.12211838194005009 -0.07795114836884712
0.15060766261500902 0.12182927286927236 -0.0782986346765285
0.15162979045931857 0.1216262052296711 -0.07870911723299809
0.15255652286066734 0.12134123353057485 -0.0790567235070529
0.15348171516263315 0.12105822337420302 -0.07940439670798755
0.15431207043131018 0.12069234124432943 -0.07968931780802513
0.15486178176959697 0.12007284142980751 -0.0797856995709505
0.15596902017436376 0.11996505972477173 -0.08025938270635946
0.15679561927015795 0.1196036523493958 -0.08054460127688665
0.15771368158304733 0.1193294753497936 -0.08089269193235643
0.15853765719567248 0.11897127102635285 -0.08117808455430148
0.15945277600836144 0.11870072862797387 -0.08152635276804313
0.16027409193731634 0.11834568505228166 -0.08181192235756213
0.16100216601397366 0.11790553321244995 -0.082034759327486
0.16163731174412843 0.11737945488486284 -0.08219499485487108
0.16227183007414814 0.116853931865812 -0.08235532642520177
0.16281409279894998 0.11624162383619424 -0.0824530650817322
0.16344752518385813 0.11571699156946297 -0.08261369457740544
0.16398896005198177 0.11510505276802624 -0.08271176660048479
0.1646212504141672 0.11458122389797876 -0.08287269131307887
0.16525294023245257 0.11405795229301746 -0.08303376926754721
0.1658839832301245 0.11353518913415822 -0.08319501221588022
0.16651442354106422 0.11301297625744888 -0.08335637568380636
0.16714421314191863 0.11249124597969434 -0.08351788065261728
0.16768296634478186 0.11188085873496673 -0.0836168782351909
0.1682214049026683 0.1112705518144973 -0.08371602856730767
0.16857922902612016 0.11048096301309063 -0.08369007465591091
0.16893731525961264 0.10969047071702975 -0.0836643566092935
0.16902612956085766 0.10862872715646343 -0.08345104618782614
0.16947496702557774 0.10792612336365065 -0.08348837613922444
0.16992378030522276 0.10722310489828651 -0.08352590049615075
0.17046196197493813 0.10661043275646148 -0.0836262306049663
0.17108910355735546 0.10608885256274087 -0.08378924936656063
0.1715374284746612 0.10538516364726508 -0.08382735592205365
0.17180785056167508 0.1044980326134754 -0.08374058412678811
0.17243409187154435 0.103976499936076 -0.08390411907035569
0.1731484297612344 0.10354744531790694 -0.08413032988001695
0.17386187168251793 0.10311935434714664 -0.08435665666722522
0.1740441942213633 0.10213741119332453 -0.08420822385271734
0.17413925768756505 0.10106095336947662 -0.0839975738245711
0.17432354022260138 0.1000750101851911 -0.08384970849732862
0.1745087304095409 0.09908720642671115 -0.0837021095285633
0.17487042283286008 0.09828436237310817 -0.08367963941112194
0.13508934514849136 0.12171114731370236 -0.07036448654940641
0.13604312623621162 0.12138830445955695 -0.0707124021041553
0.13690021448580386 0.12098601740675291 -0.07099714729575868
0.1380410456633469 0.12083031903210145 -0.07147159782619975
0.13908485182712527 0.12059560458063512 -0.0718828902378168
0.14012675306910127 0.12036328528826196 -0.07229427890210308
0.14126134935445955 0.12021577952173013 -0.07276889119124469
0.14220499756693938 0.11990597461411706 -0.07311722671484819
0.14352409402526045 0.11992944803198996 -0.0737181929718404
0.1461581745577648 0.12111971941387045 -0.07520290271283539
0.14718777811822942 0.1209041094302325 -0.07561437160539353
0.14981049657458062 0.12211086149748712 -0.07709870293256388
0.15064649500026095 0.12173647394769732 -0.07738391385026772
0.15166833747057906 0.12153158691654398 -0.07779539328731713
0.15259488103483232 0.12124485707828875 -0.07814387526296146
0.15351988033491648 0.12096009495746457 -0.07849242396875214
0.154350247894548 0.12059259686565837 -0.07877800210211205
0.154900626598455 0.11997192469162637 -0.07887453181696316
0.15591451365220843 0.11977699861997781 -0.07928639434369911
0.15664869223392713 0.11932839695449626 -0.0795092589437453
0.15756686799247466 0.11905199219793411 -0.07985824889165397
0.1582988548179039 0.1186059105991144 -0.080081326560375
0.1592142571609788 0.11833293118392901 -0.08043048347729426
0.1600361085860617 0.11797562353165963 -0.08071675349804933
0.16076480247669872 0.11753325536991 -0.0809401458337721
0.1614008540442443 0.11700516898188462 -0.0811007128165773
0.16203626644924213 0.1164776225936765 -0.08126142653137805
0.16267105145410476 0.1159506315140047 -0.0814222362891244
0.1633051692106154 0.11542416787269366 -0.08158325200865019
0.1638475472670703 0.1148105732561212 -0.08168148032715841
0.1644806078357804 0.11428496902545754 -0.08184275339757904
0.16511300694668624 0.11375988478207971 -0.08200415814938253
0.1657448058494454 0.11323533585222378 -0.0821657254707284
0.166375963843017 0.11271130805797414 -0.08232744875337114
0.16700650135513967 0.112187782407072 -0.08248928702939592
0.16754620574015328 0.11157574894935957 -0.0825884319731974
0.16808557774591232 0.11096375774739242 -0.08268775676424536
0.16844469147794033 0.11017275041082558 -0.08266164959897887
0.16880410762485742 0.1093808656387949 -0.08263574295515477
0.16907418539928892 0.10849814966977617 -0.08254726014641975
0.16943433857401002 0.10770424966886338 -0.08252178872559099
0.1698841101581095 0.10699991769142414 -0.08255931179125658
0.17042311914152175 0.10638584734515538 -0.08265975547465648
0.17096179050576032 0.10577176266199884 -0.0827604066932068
0.17141127162273817 0.10506659555791203 -0.08279846543464037
0.17177198340374322 0.10426957181391983 -0.08277401676435386
0.17222157817360711 0.1035632278807001 -0.08281251852942487
0.1732904631935827 0.10349939368129546 -0.0832899956603195
0.17188434751544673 0.1008600006772562 -0.0820126790501739
0.1722478885184725 0.10005670131596395 -0.08198926727025868
0.1721716294705954 0.098789695513823 -0.08165286244291806
0.17227289680052704 0.09770493074826897 -0.0814420817519651
0.17255083349043837 0.09680391249040049 -0.08135685683817334
0.13514073663138132 0.12164615426300596 -0.06943020822941176
0.13618951976790028 0.12140274098385218 -0.06984234569326953
0.1370464482017651 0.12099906038660502 -0.07012779103300412
0.13818654938427616 0.12084159094934116 -0.07060344555086143
0.13922981908344595 0.12060522612906327 -0.07101577416741098
0.14027123007708775 0.1203712952165732 -0.07142815466072502
0.14140512867844346 0.12022203484446842 -0.07190394452814691
0.14234841757290756 0.11991069293881756 -0.07225312439101875
0.14404274404972234 0.12026299305945026 -0.07310889478107685
0.1462027481872316 0.12103558171229328 -0.07428103626252122
0.14723198745020855 0.120818109012644 -0.0746935308691174
0.15022557047210355 0.12235432570431726 -0.07643491837469071
0.1507805701492761 0.1217283900607119 -0.076530977298362
0.15180186010690855 0.12152182338615553 -0.07694347818483155
0.1527281313309004 0.12123361954676226 -0.07729279935599939
0.15355982583921884 0.12086305997991276 -0.07757891507312753
0.1543901998388179 0.12049394330695928 -0.07786519189629199
0.1550339238285175 0.11995682025732729 -0.07802510631704929
0.1559547307174699 0.11967524881735958 -0.0783747699493002
0.1565966727786957 0.11913993095530984 -0.07853496335695906
0.15742257795547127 0.11877610961920043 -0.07882160641679398
0.15815509101550218 0.1183280893216862 -0.07904521178108209
0.1589786385160467 0.11796699113737841 -0.07933207869558659
0.1598009850719701 0.1176073832790519 -0.07961905186700033
0.16053036728811754 0.11716285755661038 -0.07984297024322995
0.16116729862920387 0.11663273738904728 -0.0800038953856915
0.16189499067048585 0.11619001970296283 -0.0802280738332331
0.16253047945273552 0.11566119141409542 -0.08038926137246485
0.16316536527293857 0.11513294542923197 -0.08055059272753604
0.16370867818815243 0.11451770734693711 -0.08064897694800605
0.16434245227470817 0.11399029437343983 -0.08081060963640974
0.1649756034616685 0.11346340858220771 -0.08097234789216065
0.16560810614181465 0.11293702244315618 -0.08113429299499189
0.16624003219907874 0.11241121230535411 -0.08129633191318003
0.16687133367054668 0.11188592055589586 -0.0814585182519311
0.16741193288478512 0.11127218555141677 -0.08155783114478499
0.16795224599648234 0.11065854162166716 -0.08165731213289501
0.16840246738832226 0.10995553796108881 -0.08169399044815309
0.1687630652630001 0.10916250186674098 -0.0816678788954138
0.1690344842379466 0.10827871994795546 -0.08157905903371707
0.1693957906584318 0.10748366794454378 -0.08155339998217448
0.16984656918140661 0.10677803616480636 -0.0815908868067095
0.17038635926224138 0.10616252886539917 -0.08169148844059851
0.17083698462390406 0.10545626601135555 -0.08172934050251504
0.1712875864719986 0.10474954458163188 -0.08176740562529572
0.1716496382426404 0.10395113487646751 -0.08174275952196833
0.17210038746553669 0.10324329389042569 -0.08178122270228114
0.17140357681279655 0.10134266382242291 -0.08100273796483504
0.17176813631327864 0.10053890567316681 -0.08097891801746754
0.17248491227105295 0.10010292233685025 -0.08120664539241268
0.17241036711501362 0.09883616451184474 -0.08086911098977415
0.17242529123969136 0.09765874527896273 -0.08059475957715195
0.17270429285077515 0.0967571463379383 -0.08050911469139857
0.1352889031799967 0.12166296084466527 -0.06855806591992117
0.13643207064158902 0.12149888578338314 -0.06903475921429314
0.13719395044532046 0.12101286146361334 -0.06925734933977323
0.138333353943829 0.1208536374207766 -0.06973418143591079
0.13947058846023686 0.12069730730137757 -0.07021105075216455
0.14051133703842345 0.1204619771159704 -0.07062443356540085
0.141644353965804 0.12031114910648383 -0.07110142956713306
0.14258716981045005 0.11999853479642336 -0.07145144377070986
0.14418560112360568 0.12026592862577123 -0.07224590190638974
0.146436501873354 0.12111811232620584 -0.07348464142592834
0.14746507697423605 0.12089922148942844 -0.07389814758174809
0.1482114981560717 0.12043297369141098 -0.07412133438553731
0.15091596454269934 0.12172107489330636 -0.07567692046447685
0.1518435970447518 0.12142914781653757 -0.07602700895060577
0.1528626684999081 0.12122312420748665 -0.07644059695227942
0.15369425988117802 0.12085120447841141 -0.07672740155738228
0.154524547016681 0.12048071482568024 -0.07701432610387313
0.15516853022677596 0.11994247802781044 -0.07717456937099018
0.15599664958744658 0.11957453724819395 -0.07746168018355279
0.15663903519479389 0.11903789671815085 -0.07762218320920944
0.15737285411913354 0.11858711494446728 -0.07784617148673231
0.15810576538052645 0.1181374101315063 -0.0780702705632105
0.158837723373766 0.117688689557155 -0.07829451084597047
0.15966039041482344 0.11732700880859936 -0.0785821556089881
0.16039033540182723 0.11688056474008562 -0.07880660809229678
